# .PCD v0.7 - Point Cloud Data file format
VERSION 0.7
FIELDS x y z label object
SIZE 4 4 4 4 4
TYPE F F F I I
COUNT 1 1 1 1 1
WIDTH 1341
HEIGHT 1
VIEWPOINT 0 0 0 1 0 0 0
POINTS 1341
DATA ascii
-2.0139837 -10.331057 3.47367 0 0
-2.1180363 -10.501771 3.5463552 0 0
-2.0705965 -10.294214 3.4813759 0 0
-2.0040202 -10.043288 3.4001079 0 0
-2.0620575 -10.099433 3.4311168 0 0
-2.0841777 -10.067845 3.4299815 0 0
-2.0732162 -9.9576511 3.3997791 0 0
-3.8801177 -14.02838 4.9342232 0 0
-3.8619695 -13.868686 4.8898673 0 0
-4.1688509 -14.105053 5.0399494 0 0
-4.2069316 -14.074812 5.0441761 0 0
-5.2626657 -15.392793 5.6850967 0 0
-3.835644 -12.04611 4.4420829 0 0
-3.6090701 -11.503266 4.2420421 0 0
-3.6514077 -11.500719 4.2546329 0 0
-3.7365954 -11.581995 4.3005872 0 0
-3.7749827 -11.570572 4.3098841 0 0
-3.8566933 -11.642694 4.3526254 0 0
-3.9040477 -11.647546 4.368649 0 0
-3.9821956 -11.710555 4.4081626 0 0
-4.0034547 -11.66496 4.404079 0 0
-4.0067434 -11.586124 4.3864946 0 0
-4.0542421 -11.590303 4.4025087 0 0
-4.1018343 -11.594279 4.4185309 0 0
-4.117909 -11.540242 4.4109206 0 0
-4.1628509 -11.534505 4.4238706 0 0
-4.1571765 -11.360664 4.3812957 0 0
-3.1878836 -9.5616951 3.6502616 0 0
-3.1583662 -9.4468584 3.6139662 0 0
-3.1764312 -9.4129543 3.6118522 0 0
-3.2005496 -9.3861933 3.6133711 0 0
-3.2277696 -9.3684835 3.6180184 0 0
-3.2454374 -9.3344669 3.6158152 0 0
-3.2772737 -9.3247118 3.6238432 0 0
-3.2995062 -9.2986832 3.6250117 0 0
-3.3216329 -9.2726021 3.6261549 0 0
-3.3533559 -9.2625551 3.6341424 0 0
-3.5411019 -9.5091887 3.752161 0 0
-3.6030297 -9.5463982 3.7809272 0 0
-3.6948102 -9.6312218 3.8304188 0 0
-3.7921367 -9.7234783 3.8834553 0 0
-3.8751781 -9.7912893 3.9262247 0 0
-3.9787147 -9.890378 3.9829085 0 0
-4.0728879 -9.9730072 4.0327721 0 0
-4.1676469 -10.055085 4.0827255 0 0
-4.3645124 -10.29431 4.2022157 0 0
-4.466032 -10.382788 4.2559075 0 0
-4.4810419 -10.337227 4.250524 0 0
-4.5267396 -10.338667 4.266005 0 0
-4.6501436 -10.457101 4.3338232 0 0
-4.7743654 -10.574783 4.4017682 0 0
-6.9380164 -13.630296 5.812767 0 0
-6.8626013 -13.42942 5.7423453 0 0
-6.8072162 -13.260111 5.6857581 0 0
-6.8732967 -13.268491 5.709805 0 0
-6.9983468 -13.361078 5.7725544 0 0
-7.4371953 -13.71838 6.0002193 0 0
-7.3767843 -13.456396 5.921556 0 0
-7.4223795 -13.431936 5.9316006 0 0
-7.4789581 -13.42241 5.9487143 0 0
-7.5078855 -13.374988 5.9480824 0 0
-7.5811243 -13.387609 5.9758248 0 0
-15.665765 -24.144751 11.102957 0 0
-15.200987 -23.366444 10.773071 0 0
-15.266706 -23.299782 10.780951 0 0
-15.326547 -23.225494 10.785207 0 0
-15.42019 -23.195553 10.810822 0 0
-16.677477 -24.673775 11.565687 0 0
-16.741522 -24.59477 11.570545 0 0
-16.489 -24.111073 11.378312 0 0
-16.572605 -24.051315 11.394236 0 0
-16.77953 -24.155714 11.488439 0 0
-14.340708 -19.262016 9.5906258 0 0
-14.39636 -19.196123 9.5964537 0 0
-14.436226 -19.119207 9.5944357 0 0
-14.484927 -19.059282 9.5991602 0 0
-14.474612 -18.926695 9.5677977 0 0
-14.438739 -18.766727 9.5216932 0 0
-13.82534 -17.85684 9.1140585 0 0
-13.898362 -17.823509 9.1332226 0 0
-13.987296 -17.694641 9.1384249 0 0
-14.0346 -17.63344 9.1427841 0 0
-14.273013 -17.775133 9.2574587 0 0
-14.477128 -17.871799 9.3506289 0 0
-14.512101 -17.795584 9.3476334 0 0
-14.450133 -17.618835 9.2892447 0 0
-14.471265 -17.529518 9.2786894 0 0
-14.735409 -17.247927 9.3174467 0 0
-14.8009 -17.204193 9.3324823 0 0
-15.057594 -17.239424 9.4330568 0 0
-15.143161 -17.213917 9.4592047 0 0
-15.195389 -17.15576 9.4667253 0 0
-15.280906 -17.129578 9.4928236 0 0
-15.393299 -17.128632 9.5338173 0 0
-15.375521 -16.89603 9.4814072 0 0
-15.365819 -16.780107 9.4550533 0 0
-15.409922 -16.714956 9.4585171 0 0
-15.453807 -16.649687 9.4619293 0 0
-16.700169 -17.68734 10.124406 0 0
-17.398184 -18.210886 10.484242 0 0
-17.652966 -18.325535 10.600763 0 0
-17.763948 -18.308502 10.638574 0 0
-16.939476 -17.3442 10.146596 0 0
-16.894894 -17.194323 10.101219 0 0
-16.738039 -16.947309 9.995491 0 0
-15.726289 -15.857714 9.4102373 0 0
-15.702398 -15.635628 9.3591204 0 0
-15.709976 -15.536614 9.3432217 0 0
-15.718996 -15.450329 9.3303194 0 0
-15.701839 -15.337088 9.3025684 0 0
-15.662786 -15.206408 9.2633715 0 0
-15.66596 -15.111473 9.2467909 0 0
-15.733179 -15.069438 9.2642431 0 0
-15.821873 -15.044618 9.2930422 0 0
-15.946591 -15.048423 9.3407955 0 0
-15.99215 -14.987879 9.3467875 0 0
-15.967672 -14.866204 9.3150663 0 0
-15.911093 -14.725304 9.2677078 0 0
-15.882917 -14.607798 9.2354555 0 0
-15.31821 -13.9864 8.9075327 0 0
-15.360433 -13.928068 8.9129591 0 0
-15.426844 -13.88319 8.9300795 0 0
-15.667562 -13.975377 9.0384531 0 0
-15.70005 -13.913636 9.0396948 0 0
-14.106034 -12.060831 8.0989914 0 0
-14.142208 -12.006749 8.1034021 0 0
-14.172653 -11.944236 8.1041737 0 0
-14.821783 -12.317855 8.419692 0 0
-5.6094356 -5.8173456 3.732661 0 0
-5.618083 -5.7869754 3.7307484 0 0
-5.5425949 -5.6996288 3.6864641 0 0
-5.474288 -5.6180096 3.6459661 0 0
-5.5129471 -5.6086969 3.6593595 0 0
-5.1364679 -5.3236957 3.4645391 0 0
-5.1280656 -5.2849298 3.4546709 0 0
-5.1812563 -5.2866697 3.4756489 0 0
-5.5594864 -5.4990721 3.6588016 0 0
-5.512742 -5.434134 3.6296372 0 0
-5.1393743 -5.1608038 3.4380989 0 0
-5.2223167 -5.1481233 3.4683599 0 0
-5.2521176 -5.1341019 3.4776766 0 0
-5.2505846 -5.1004696 3.4714954 0 0
-5.2803035 -5.0862536 3.4807837 0 0
-4.4021611 -4.4879475 3.0379586 0 0
-4.4464812 -4.4847989 3.0548465 0 0
-4.5851049 -4.5393276 3.1182241 0 0
-4.375443 -4.3860121 3.0108283 0 0
-4.3627267 -4.3522334 3.0003495 0 0
-4.3664198 -4.3267217 2.9976854 0 0
-4.3786302 -4.3046894 2.9989562 0 0
-4.3981171 -4.2883744 3.0040324 0 0
-4.4409313 -4.2868495 3.0207005 0 0
-4.6046405 -4.3520541 3.0957987 0 0
-4.6965871 -4.3755474 3.1359038 0 0
-4.7324576 -4.3670416 3.1487625 0 0
-4.696476 -4.3169599 3.1266172 0 0
-4.6192417 -4.2462311 3.0848887 0 0
-4.5982308 -4.2069068 3.0704024 0 0
-4.6580496 -4.2115464 3.0948877 0 0
-5.2860112 -4.5203781 3.3924565 0 0
-5.4732523 -4.5583601 3.4728432 0 0
-5.5345516 -4.5593963 3.4974289 0 0
-5.5796003 -4.5515795 3.514199 0 0
-13.908467 -8.7416153 7.4761486 0 0
-5.6574626 -4.4974709 3.5370893 0 0
-5.6449718 -4.4598975 3.5264385 0 0
-5.6899886 -4.4511719 3.5431495 0 0
-5.7102814 -4.4299603 3.5481102 0 0
-5.841764 -4.4314656 3.6010587 0 0
-5.8454638 -4.4016876 3.5981495 0 0
-5.87397 -4.3838148 3.6069739 0 0
-5.8941302 -4.3618603 3.6118646 0 0
-14.268108 -8.2582483 7.5486107 0 0
-14.267479 -8.1924067 7.5387974 0 0
-14.251241 -8.1159496 7.5212007 0 0
-14.308663 -8.0770979 7.5387545 0 0
-14.374404 -8.0417347 7.5602031 0 0
-14.423312 -7.9984884 7.5737705 0 0
-14.319559 -7.8907647 7.5165429 0 0
-11.102813 -6.4083891 6.0064449 0 0
-3.8482101 -3.1883564 2.6182294 0 0
-3.9321752 -3.2021976 2.6541545 0 0
-3.9571354 -3.1901336 2.6625757 0 0
-3.9228411 -3.1527607 2.6434755 0 0
-3.9137952 -3.1263514 2.6361465 0 0
-3.9301038 -3.1106448 2.6405957 0 0
-3.938308 -3.0902748 2.6411278 0 0
-3.9630396 -3.0779126 2.6494842 0 0
-3.9881837 -3.0643287 2.657856 0 0
-4.4561634 -3.2307255 2.8707623 0 0
-4.4985204 -3.2232387 2.8869908 0 0
-4.5066805 -3.202039 2.887466 0 0
-4.5233417 -3.1841481 2.8918622 0 0
-4.531383 -3.1628692 2.8923078 0 0
-4.5393596 -3.1415639 2.8927383 0 0
-4.5472703 -3.1202357 2.8931539 0 0
-12.388494 -5.9779282 6.4708061 0 0
-12.440224 -5.9428515 6.4873929 0 0
-12.120381 -5.7726817 6.334518 0 0
-12.491596 -5.8532023 6.4968333 0 0
-12.491111 -5.7989793 6.4896803 0 0
-12.508699 -5.74825 6.4904132 0 0
-13.836796 -6.0386457 7.0718794 0 0
-11.746371 -5.2772121 6.1182542 0 0
-14.866982 -5.8330631 7.4705386 0 0
-14.40772 -5.5734801 7.2501445 0 0
-6.6960363 -3.2340243 3.7901614 0 0
-6.2898278 -3.0844321 3.6048093 0 0
-6.3153372 -3.0623636 3.6127667 0 0
-6.3319602 -3.0376382 3.6167603 0 0
-6.3219805 -3.0053666 3.6088979 0 0
-6.3915687 -2.9953082 3.6365285 0 0
-6.4168773 -2.9726703 3.6444111 0 0
-6.3977818 -2.9379036 3.6325464 0 0
-6.5117283 -2.938813 3.679848 0 0
-6.5813498 -2.9272909 3.7074006 0 0
-6.6154184 -2.9060977 3.7191513 0 0
-6.6227431 -2.8778648 3.7190459 0 0
-6.6282125 -2.8191159 3.7148311 0 0
-12.266618 -4.1720266 6.2039156 0 0
-12.126398 -4.0881419 6.1365499 0 0
-12.093057 -4.0307927 6.1164942 0 0
-12.175802 -4.0009913 6.1476841 0 0
-12.204796 -3.9582665 6.1551738 0 0
-12.137488 -3.8416297 6.1148195 0 0
-12.201928 -3.8067691 6.1379848 0 0
-12.463894 -3.814347 6.2478561 0 0
-15.01732 -4.3121667 7.3630328 0 0
-11.359974 -3.4852874 5.7539611 0 0
-11.396415 -3.4467554 5.765204 0 0
-11.342689 -3.3897355 5.7370019 0 0
-11.315778 -3.3385007 5.7205977 0 0
-11.315742 -3.2927876 5.7159896 0 0
-11.333609 -3.2505786 5.7192316 0 0
-11.793891 -3.2919462 5.915473 0 0
-11.88459 -3.2589531 5.9500947 0 0
-11.90241 -3.2147591 5.9532123 0 0
-11.901525 -3.1697967 5.9484706 0 0
-11.828537 -3.1096282 5.9121552 0 0
-11.809668 -3.059319 5.8994398 0 0
-12.651739 -3.1015079 6.2555938 0 0
-12.669159 -3.0545819 6.2584701 0 0
-12.731393 -3.0174348 6.281044 0 0
-13.866165 -3.1428716 6.7676406 0 0
-13.938833 -3.0971119 6.7938499 0 0
-14.029114 -3.0564983 6.8279438 0 0
-12.433839 -2.7238562 6.1295991 0 0
-13.943763 -2.8853941 6.7767649 0 0
-4.2536635 -1.5333439 2.5953057 0 0
-4.1746721 -1.5012636 2.5593629 0 0
-4.1957359 -1.4835935 2.5666482 0 0
-4.2441382 -1.4691751 2.585695 0 0
-4.2742558 -1.45225 2.596869 0 0
-4.2403846 -1.4276661 2.580555 0 0
-4.2338395 -1.406426 2.576005 0 0
-4.2636585 -1.3903899 2.587168 0 0
-4.2046337 -1.3420879 2.5583661 0 0
-4.2069616 -1.3220085 2.5576906 0 0
-4.236701 -1.3045738 2.5687563 0 0
-4.2572379 -1.2860947 2.5758853 0 0
-4.2319026 -1.2633785 2.5634167 0 0
-4.2431574 -1.244004 2.566601 0 0
-13.870481 -1.969377 6.6693807 0 0
-13.893499 -1.9212984 6.6753163 0 0
-12.897738 -1.7957649 6.2470622 0 0
-6.3825302 -1.1809958 3.4612315 0 0
-6.3753181 -1.1531675 3.4561615 0 0
-12.502024 -1.4279898 6.0532475 0 0
-12.514392 -1.3806174 6.0550461 0 0
-12.545016 -1.3339629 6.0646076 0 0
-6.4652166 -1.0471221 3.4863949 0 0
-6.4851999 -1.020172 3.492919 0 0
-6.4682817 -0.99189556 3.4838419 0 0
-6.4420643 -0.96346676 3.4708598 0 0
-6.4157538 -0.93522203 3.4578688 0 0
-6.3801408 -0.9069488 3.440979 0 0
-6.3812776 -0.87962848 3.4396372 0 0
-6.3823309 -0.85230374 3.4382775 0 0
-6.3832984 -0.82497835 3.4369001 0 0
-6.3841829 -0.79764944 3.4355052 0 0
-6.3849835 -0.77032048 3.4340925 0 0
-6.3764825 -0.74296534 3.4287815 0 0
-6.3678975 -0.71567291 3.4234567 0 0
-6.3592253 -0.68843859 3.418117 0 0
-6.3689065 -0.66112912 3.4205151 0 0
-6.3600659 -0.63395548 3.415144 0 0
-6.3603606 -0.60671496 3.413631 0 0
-6.3697886 -0.57931006 3.4159708 0 0
-6.3607006 -0.55071706 3.410466 0 0
-6.3607388 -0.52499014 3.4089873 0 0
-6.3606968 -0.4977521 3.4074044 0 0
-6.3513527 -0.47079733 3.4019411 0 0
-6.3603616 -0.44327721 3.4041867 0 0
-6.3600502 -0.41452897 3.4024608 0 0
-6.350451 -0.38767627 3.39695 0 0
-6.3500133 -0.36198598 3.3953743 0 0
-6.3494687 -0.33479017 3.3936892 0 0
-6.3488417 -0.30759719 3.3919871 0 0
-6.3481288 -0.28040493 3.3902674 0 0
-6.347333 -0.25321871 3.3885307 0 0
-6.3372397 -0.22659554 3.3829303 0 0
-6.336277 -0.19944738 3.3811607 0 0
-6.3352308 -0.17230135 3.3793743 0 0
-6.3341012 -0.14516196 3.3775706 0 0
0.22512646 -0.57932347 0.64122367 0 0
-12.401268 1.6775514 5.8527985 0 0
-12.385738 1.7233157 5.8449593 0 0
-12.415688 1.7770238 5.8559322 0 0
-12.418099 1.8260431 5.8555608 0 0
-12.429471 1.8767686 5.8589172 0 0
-12.422458 1.9241966 5.8547153 0 0
-14.679613 3.0266614 6.7706332 0 0
-11.658253 2.432848 5.5250525 0 0
-11.658508 2.4798408 5.5243492 0 0
-4.3208971 0.75490749 2.5045114 0 0
-4.298737 0.77087778 2.4950535 0 0
-4.2945642 0.79119545 2.49301 0 0
-4.1557536 0.81944215 2.4350305 0 0
0.47084665 -0.32237771 0.53208226 0 0
4.9513535 24.235714 2.8482623 0 0
4.9930263 23.96167 2.8025191 0 0
5.0735316 23.992941 2.7917764 0 0
5.1567411 24.07366 2.7874098 0 0
5.2528334 24.212683 2.7887444 0 0
5.3428307 24.302155 2.7844172 0 0
5.4134765 24.253586 2.7646692 0 0
5.4809351 24.185133 2.7428155 0 0
5.6741681 24.952024 2.8130193 0 0
5.7720008 25.039486 2.8071749 0 0
5.8320379 24.911098 2.7785764 0 0
5.9106245 24.930428 2.7669649 0 0
5.9648218 24.772245 2.7354264 0 0
6.0223899 24.613316 2.7032299 0 0
6.0547132 24.337231 2.6595514 0 0
6.1074314 24.188543 2.6297324 0 0
6.2196851 24.382584 2.6362767 0 0
6.3050604 24.419535 2.6261508 0 0
6.4085526 24.55405 2.6262047 0 0
6.4638982 24.424084 2.5986745 0 0
6.4852934 24.11801 2.5531285 0 0
6.5779672 24.193077 2.5471163 0 0
6.6539984 24.179914 2.532037 0 0
6.7241879 24.137226 2.514004 0 0
6.7764955 24.006527 2.4871488 0 0
6.8320231 23.895216 2.4624209 0 0
6.9192958 23.939686 2.4534245 0 0
6.9617085 23.769596 2.4230709 0 0
7.0323062 23.735708 2.4064028 0 0
7.0985036 23.682154 2.3878698 0 0
7.1751337 23.677015 2.3741615 0 0
7.3104324 23.933941 2.3859847 0 0
7.3636732 23.821335 2.3618083 0 0
7.4452987 23.834749 2.3499053 0 0
7.529305 23.857588 2.3389211 0 0
7.6616082 24.083628 2.3472762 0 0
7.8231869 24.425314 2.366359 0 0
7.8341722 24.137245 2.3258598 0 0
7.8696136 23.955685 2.2956617 0 0
7.9425445 23.928732 2.280066 0 0
8.0275593 23.949837 2.2689722 0 0
8.0979624 23.912745 2.2525299 0 0
8.1082439 23.644012 2.2149782 0 0
8.1902208 23.654848 2.2031512 0 0
8.2569838 23.607632 2.1860936 0 0
8.3157721 23.531357 2.1664987 0 0
8.366293 23.426092 2.1444232 0 0
8.7356396 24.184725 2.1862504 0 0
8.7873831 24.078386 2.1639833 0 0
8.9095688 24.221106 2.1635866 0 0
9.143157 24.746323 2.1962459 0 0
9.0025539 23.699837 2.0802963 0 0
9.1711693 23.994112 2.0928166 0 0
9.0554647 23.353592 2.0265872 0 0
9.201663 23.570858 2.0325544 0 0
9.3345623 23.73984 2.0342863 0 0
9.456707 23.870171 2.0326555 0 0
9.5210247 23.799049 2.0135696 0 0
9.6049976 23.80501 2.0016086 0 0
9.6860247 23.801188 1.9888672 0 0
9.8040972 23.910872 1.985359 0 0
9.8669024 23.849554 1.9679815 0 0
9.8760281 23.62718 1.9377875 0 0
10.411463 23.977272 1.903968 0 0
10.447185 23.839037 1.8810045 0 0
10.542277 23.869955 1.8711617 0 0
10.630899 23.881739 1.8598548 0 0
11.290717 25.468678 1.9676698 0 0
11.440332 25.384325 1.9354969 0 0
11.125473 24.06658 1.8127509 0 0
11.236654 24.132244 1.8053846 0 0
11.487565 24.560801 1.8243476 0 0
11.507245 24.383205 1.7991632 0 0
11.428555 23.943869 1.7547408 0 0
11.478337 23.850321 1.7360607 0 0
15.125549 31.391356 2.1802988 0 0
12.394761 24.378691 1.6772205 0 0
12.45977 24.319553 1.6612167 0 0
12.457555 24.10433 1.6349313 0 0
12.450157 23.880171 1.6082833 0 0
12.28971 23.308638 1.5591445 0 0
12.367208 23.28644 1.546241 0 0
12.460855 23.300488 1.5357156 0 0
12.501672 23.195721 1.5175929 0 0
12.509102 23.018118 1.494961 0 0
12.569294 22.958807 1.4799709 0 0
12.69163 23.035475 1.4735638 0 0
12.889836 23.263842 1.4758912 0 0
12.958955 23.221569 1.4619753 0 0
13.032165 23.188124 1.4486561 0 0
13.11382 23.172491 1.4364665 0 0
13.178292 23.120527 1.4221189 0 0
13.16462 22.906414 1.3981569 0 0
13.215437 22.838259 1.3836718 0 0
13.305024 22.839865 1.372752 0 0
13.394714 22.841141 1.3618298 0 0
5.3770013 6.3856759 0.39189133 0 0
5.3704348 6.2662516 0.37860948 0 0
5.3689408 6.2111015 0.37231177 0 0
5.3855491 6.1914806 0.36802626 0 0
5.4252062 6.2160788 0.36617956 0 0
5.4371176 6.1874738 0.36143273 0 0
5.4582524 6.1765041 0.35766363 0 0
5.4852371 6.1736598 0.35416543 0 0
5.5146337 6.1807461 0.35155001 0 0
5.5309863 6.1607509 0.34733954 0 0
5.5711994 6.1845498 0.34542337 0 0
5.6067801 6.1994133 0.34302941 0 0
14.77541 22.523092 1.1611367 0 0
14.924866 22.623213 1.1555616 0 0
15.040604 22.661772 1.1468544 0 0
15.151737 22.691164 1.1376766 0 0
15.183556 22.581474 1.1217133 0 0
15.324889 22.662064 1.1150404 0 0
15.431637 22.681568 1.1053885 0 0
15.523475 22.674772 1.0944854 0 0
15.676373 22.770864 1.0884258 0 0
15.732925 22.703075 1.0746839 0 0
15.799463 22.652296 1.0617973 0 0
16.072273 22.943569 1.0645386 0 0
16.15506 22.917393 1.0527232 0 0
16.018858 22.532873 1.0249505 0 0
16.14765 22.583359 1.016753 0 0
16.191322 22.48646 1.0014985 0 0
16.638149 23.044622 1.0152588 0 0
16.821308 23.166283 1.009254 0 0
17.082769 23.427217 1.0102352 0 0
17.03315 23.186975 0.98939472 0 0
17.041571 23.03977 0.97263604 0 0
17.108868 22.985081 0.95981687 0 0
17.1106 22.829649 0.94296902 0 0
17.182676 22.783125 0.93064147 0 0
17.056648 22.435928 0.90642959 0 0
17.088865 22.331238 0.89205348 0 0
17.18717 22.326313 0.88165295 0 0
17.380375 22.462017 0.87666333 0 0
17.720179 22.811989 0.87968868 0 0
18.079159 23.184874 0.88327265 0 0
18.2145 23.226025 0.87424952 28 0
18.293478 23.184292 0.86216605 28 0
18.378056 23.150503 0.85041684 28 0
18.55423 23.247482 0.8433755 28 0
18.460791 22.959389 0.82267404 28 0
18.683487 23.120735 0.8178938 28 0
18.843506 23.191402 0.8098616 28 0
18.776873 22.944527 0.79098862 28 0
18.726431 22.722601 0.77317876 28 0
19.359642 23.288887 0.77114934 28 0
19.551685 23.396351 0.76411426 28 0
19.397476 23.025974 0.74123579 28 0
19.490057 23.007339 0.7308619 28 0
19.676704 23.105303 0.72354072 28 0
19.73563 23.023788 0.71009773 28 0
25.882753 30.959396 0.93790692 0 0
26.356796 30.975044 0.89702082 0 0
26.423113 30.860643 0.88001931 0 0
26.532177 30.801165 0.86465329 0 0
26.69685 30.811934 0.85127473 0 0
26.849386 30.806328 0.83745372 0 0
26.995878 30.792265 0.82342148 0 0
27.142536 30.777578 0.80938882 0 0
27.301908 30.777834 0.79576468 0 0
27.43626 30.746389 0.78134656 0 0
29.700521 33.312321 0.83139384 0 0
28.105961 31.16777 0.76441544 0 0
10.692733 9.9930191 0.24367391 0 0
10.704501 9.9443092 0.23815924 0 0
10.698583 9.8711338 0.23186581 0 0
10.524454 9.5995789 0.22114056 0 0
10.59494 9.6185751 0.21711351 0 0
10.665623 9.6372337 0.2130648 0 0
10.814814 9.7464581 0.2109375 0 0
10.807586 9.6735268 0.20490243 0 0
10.793425 9.5931997 0.19878022 0 0
9.2167521 7.6778712 0.15205364 0 0
9.2291975 7.6402068 0.14771883 0 0
9.228158 7.5876303 0.14313686 0 0
9.2335491 7.5425739 0.13873993 0 0
9.2454453 7.5049715 0.13451619 0 0
9.2639141 7.4747653 0.13045496 0 0
9.2890282 7.4518862 0.12654506 0 0
9.3208466 7.4362841 0.1227768 0 0
9.3594408 7.4278903 0.11913978 0 0
9.4048796 7.4266443 0.11562292 0 0
9.4709234 7.4470553 0.11243978 0 0
11.450223 9.4289398 0.13413405 0 0
11.557362 9.4788246 0.13048215 0 0
11.609425 9.4705057 0.12599421 0 0
11.612825 9.4116869 0.12084772 0 0
11.671789 9.4102306 0.11648481 0 0
11.786842 9.4656258 0.11282469 0 0
11.888288 9.5061655 0.10893944 0 0
11.975982 9.5319862 0.10485123 0 0
11.986203 9.4795322 0.099875584 0 0
12.045813 9.4764853 0.095469803 0 0
12.034405 9.4028444 0.090346873 0 0
12.03691 9.3433819 0.085424289 0 0
12.103516 9.3468981 0.081140868 0 0
12.170238 9.3500957 0.076851472 0 0
12.258665 9.3738089 0.072732739 0 0
12.327408 9.3745089 0.068166591 0 0
12.416266 9.3973656 0.064007372 0 0
12.547179 9.4628668 0.060377713 0 0
12.69487 9.539547 0.056524664 0 0
12.609507 9.3967438 0.05121401 0 0
12.772311 9.4861317 0.047396373 0 0
12.84031 9.4863634 0.043012802 0 0
12.915775 9.4930363 0.03866002 0 0
12.970977 9.4772043 0.033952542 0 0
12.987429 9.4294329 0.0293671 0 0
12.921993 9.3079977 0.024547374 0 0
12.96018 9.280488 0.020140653 0 0
13.087918 9.3326445 0.015984196 0 0
13.231056 9.3973637 0.01181195 0 0
13.222818 9.3311434 0.007558797 0 0
13.291269 9.3289413 0.0032214075 0 0
13.365651 9.334939 -0.0008661141 0 0
13.430168 9.3215637 -0.0056973402 0 0
13.491316 9.3118439 -0.010037698 0 0
13.567725 9.3148222 -0.014373383 0 0
13.636635 9.3109589 -0.01871042 0 0
13.728578 9.3260889 -0.023065783 0 0
13.797725 9.3214846 -0.027409364 0 0
13.843888 9.297369 -0.031714614 0 0
13.990216 9.3558865 -0.036193214 0 0
14.02111 9.3183851 -0.040462103 0 0
14.082881 9.3060732 -0.044782933 0 0
14.098089 9.255682 -0.048957825 0 0
14.223812 9.291029 -0.053682171 0 0
14.355982 9.3340578 -0.058234621 0 0
14.432046 9.3349304 -0.062376514 0 0
14.43935 9.2774448 -0.066453613 0 0
14.517176 9.2756224 -0.07080707 0 0
14.57935 9.2611036 -0.075084075 0 0
14.63366 9.2401552 -0.079310581 0 0
14.719631 9.2433996 -0.08369419 0 0
14.75188 9.2014132 -0.087986313 0 0
14.830048 9.1978827 -0.092311665 0 0
12.507694 7.3782248 -0.081299879 0 0
15.425707 9.4541817 -0.10778866 0 0
15.400692 9.3705158 -0.1114567 0 0
15.407489 9.3108339 -0.1153017 0 0
15.422117 9.2571125 -0.119163 0 0
15.574 9.3034163 -0.12409321 0 0
15.661464 9.3020096 -0.12851876 0 0
15.651593 9.2301474 -0.13210584 0 0
15.673971 9.181673 -0.13592587 0 0
15.810384 9.2141256 -0.14075111 0 0
15.8899 9.2055235 -0.14506467 0 0
15.969498 9.1965246 -0.1493721 0 0
16.008121 9.1585808 -0.15326682 0 0
16.079563 9.143219 -0.15746668 0 0
16.373653 9.2802839 -0.16396177 0 0
16.371275 9.2128515 -0.16740629 0 0
16.4597 9.2072058 -0.17178716 0 0
16.55652 9.2066898 -0.17625502 0 0
16.628542 9.1889906 -0.18044117 0 0
16.683929 9.1598883 -0.18442044 0 0
16.831104 9.1910896 -0.18945615 0 0
16.836411 9.1283302 -0.19281243 0 0
16.916914 9.1147032 -0.19704129 0 0
17.066343 9.1414843 -0.2022914 0 0
17.298573 9.2240362 -0.20842187 0 0
17.423534 9.232708 -0.21340543 0 0
17.350985 9.1230536 -0.21546462 0 0
17.398115 9.0857553 -0.21920969 0 0
17.57238 9.1277084 -0.22463314 0 0
17.670572 9.1212482 -0.22904272 0 0
17.871042 9.1772003 -0.23485658 0 0
17.790518 9.0598192 -0.2367671 0 0
17.93162 9.0780087 -0.24174449 0 0
18.115793 9.1212435 -0.24734674 28 0
18.317541 9.1737099 -0.25322577 28 0
18.45961 9.1892414 -0.25825131 28 0
18.644981 9.2294064 -0.26392588 28 0
18.942877 9.3342991 -0.27131346 28 0
18.628103 9.0801401 -0.26941714 28 0
18.64086 9.018239 -0.2724151 28 0
18.774794 9.0260477 -0.27725932 28 0
18.822067 8.9836082 -0.28073701 28 0
18.904047 8.9606676 -0.28473535 28 0
16.231546 7.3892975 -0.24451151 0 0
16.169113 7.2960634 -0.24570881 0 0
16.211201 7.2614374 -0.24855781 0 0
16.226929 7.2121725 -0.2509467 0 0
16.251266 7.167676 -0.25344586 0 0
16.284264 7.1278601 -0.25606033 0 0
16.361177 7.1116047 -0.25938955 0 0
16.439466 7.0924401 -0.26283711 0 0
20.253859 9.0554066 -0.33043864 28 0
20.239601 8.9752169 -0.33263063 0 0
20.322533 8.9460974 -0.33647022 0 0
20.467613 8.94874 -0.341378 0 0
20.550634 8.9185858 -0.34517661 0 0
20.883028 9.0152493 -0.35339779 28 0
20.93074 8.965415 -0.35653979 28 0
21.115273 8.9097462 -0.36433861 28 0
18.922321 7.7505035 -0.32636622 0 0
19.029089 7.7373381 -0.33021569 0 0
19.055044 7.6841745 -0.33255115 0 0
22.077799 8.8491793 -0.39679196 28 0
19.570051 7.5320325 -0.35268459 0 0
19.858725 7.5985355 -0.35985085 0 0
8.4077711 2.2982244 -0.14045797 0 0
8.4175491 2.2766998 -0.14125128 0 0
8.4449921 2.2644687 -0.14234327 0 0
8.4911957 2.2590921 -0.14382161 0 0
8.4724007 2.2274647 -0.14395601 0 0
8.4539785 2.1948309 -0.14410974 0 0
8.4445906 2.1663198 -0.14442472 0 0
8.4534531 2.1458113 -0.14508592 0 0
8.4530573 2.121347 -0.14554921 0 0
8.4709883 2.1047127 -0.14636423 0 0
8.4980993 2.0918627 -0.14735146 0 0
8.5164423 2.07388 -0.14817446 0 0
8.5250216 2.0531492 -0.14876385 0 0
8.5238113 2.0297606 -0.14911927 0 0
8.550787 2.0165191 -0.15005574 0 0
8.5689316 1.99825 -0.15082102 0 0
8.5958567 1.984755 -0.15173197 0 0
8.6223011 1.9722898 -0.15260255 0 0
8.6678123 1.9658011 -0.15387227 0 0
20.778826 6.4325037 -0.40578866 28 0
18.646519 5.5694575 -0.36230168 0 0
19.003399 5.6423373 -0.37033188 0 0
19.144964 5.633966 -0.37387121 0 0
19.249046 5.611136 -0.37660336 0 0
19.297415 5.4460793 -0.3791008 0 0
19.27858 5.378902 -0.37913173 0 0
19.25005 5.3086352 -0.37892339 0 0
18.528702 4.8834324 -0.36472636 0 0
18.631308 4.8601313 -0.36712319 0 0
28.345539 7.9003501 -0.57213944 28 0
28.410069 7.8306584 -0.57371902 28 0
28.41725 7.7424836 -0.57403833 28 0
28.452751 7.6633487 -0.57490236 28 0
28.516659 7.5929875 -0.57631397 28 0
28.589949 7.5252404 -0.57787108 28 0
28.653503 7.4542203 -0.57917124 28 0
28.707306 7.3800058 -0.58021367 28 0
28.723949 7.289505 -0.5804103 28 0
28.806072 7.2233567 -0.58194202 28 0
28.859249 7.1483874 -0.58281076 28 0
28.892998 7.0676537 -0.58321708 28 0
21.223152 4.7976923 -0.42151865 0 0
21.297836 4.7539778 -0.42279708 0 0
29.135349 6.6829047 -0.5860039 28 0
29.264299 6.6269898 -0.58808625 28 0
29.296505 6.5448046 -0.58808726 28 0
29.357491 6.4700494 -0.58863533 28 0
29.437639 6.3999929 -0.58952957 28 0
29.45948 6.3147221 -0.58915228 28 0
29.55983 6.244102 -0.59030449 28 0
29.590897 6.1608586 -0.59000736 28 0
29.718842 6.101212 -0.59166366 28 0
29.739763 6.0150757 -0.59104502 28 0
29.857689 5.9520135 -0.59237695 28 0
29.868418 5.8631687 -0.59143734 28 0
24.969564 4.6384921 -0.48946863 0 0
24.927513 4.5536699 -0.48756176 0 0
30.513714 5.5490327 -0.59800565 28 0
30.816395 5.5214467 -0.60265326 28 0
31.138737 5.4961996 -0.60761392 28 0
31.431839 5.4628973 -0.61189437 28 0
31.667303 5.4106479 -0.61482793 28 0
31.793901 5.3403072 -0.61558646 28 0
28.186749 4.3575926 -0.53809017 28 0
28.241608 4.2836423 -0.53740925 28 0
31.25202 4.665606 -0.59301299 28 0
31.248846 4.5712304 -0.5908165 28 0
30.733387 4.3865294 -0.57855314 28 0
30.640678 4.278492 -0.57454681 28 0
30.665855 4.1912231 -0.57278949 28 0
30.701456 4.1005411 -0.5710479 28 0
30.982634 4.0550222 -0.57409751 28 0
30.928162 3.9539335 -0.57062221 28 0
30.883223 3.8547831 -0.5672853 28 0
30.83795 3.7559402 -0.56389725 28 0
30.831892 3.6634111 -0.5612058 28 0
30.350784 3.5007432 -0.54953569 28 0
30.274656 3.3998144 -0.54547602 28 0
30.287275 3.3120015 -0.54303068 28 0
30.418468 3.2406213 -0.54272723 28 0
30.708021 3.1899278 -0.54526383 28 0
30.739817 3.1034193 -0.54297 28 0
30.721775 3.0103407 -0.53971058 28 0
30.71335 2.9186754 -0.53657717 28 0
30.684795 2.8246632 -0.53303206 28 0
30.665859 2.7320514 -0.52961302 28 0
30.736588 2.6450479 -0.52756518 28 0
30.667459 2.4567485 -0.51991498 28 0
30.706999 2.3709564 -0.51731747 28 0
30.73634 2.2839191 -0.51448244 28 0
30.725626 2.1927216 -0.51089877 28 0
30.754435 2.1054943 -0.50794142 28 0
30.49263 1.9014919 -0.49646804 28 0
30.241682 1.7901857 -0.48869374 28 0
30.209499 1.69912 -0.48456347 28 0
30.256742 1.6148422 -0.4816992 28 0
31.001472 1.5854405 -0.49017102 28 0
31.008505 1.4954542 -0.48643646 28 0
31.075096 1.4097921 -0.48360404 28 0
31.091562 1.3202794 -0.47990254 28 0
31.108095 1.2256674 -0.47592017 28 0
31.233763 1.1429542 -0.47381181 28 0
31.199512 1.0498602 -0.46913278 28 0
31.30472 0.9649902 -0.46655488 28 0
31.359764 0.8767758 -0.46312878 28 0
31.434517 0.78927588 -0.45993149 28 0
31.439096 0.69798315 -0.45561033 28 0
31.433407 0.60623109 -0.45108244 28 0
31.63723 0.52327442 -0.44956723 28 0
31.601027 0.42982218 -0.44446164 28 0
31.63448 0.33909565 -0.44031039 28 0
31.757597 0.25110051 -0.4373647 28 0
31.820644 0.15545574 -0.43321684 28 0
31.953215 0.066381507 -0.43021959 28 0
32.155373 -0.016667729 -0.4283525 28 0
32.457382 -0.10409996 -0.42744216 28 0
32.639259 -0.20071428 -0.42448488 28 0
32.720776 -0.29458761 -0.42036918 28 0
33.242905 -0.48101658 -0.4164944 28 0
33.42355 -0.57700318 -0.41331714 28 0
33.673901 -0.67399108 -0.41088837 28 0
33.873955 -0.77243549 -0.40769348 28 0
34.043705 -0.87196857 -0.40400037 28 0
34.263142 -0.97292936 -0.40077904 28 0
34.492256 -1.0753465 -0.39753205 28 0
33.923294 -2.3613026 -0.30852538 28 0
33.918163 -2.4601276 -0.30174577 28 0
41.647236 -3.3703246 -0.33707383 0 0
41.352737 -3.839931 -0.29952163 0 0
35.4529 -3.4791276 -0.24912553 28 0
35.414425 -3.5800679 -0.24115507 28 0
26.097776 -3.0182776 -0.16058427 0 0
17.572435 -2.5996668 -0.64763319 28 0
18.978992 -2.8719842 -0.69631028 28 0
19.05135 -2.9383054 -0.69476211 28 0
19.113934 -3.0008354 -0.69299597 28 0
19.236111 -3.0687754 -0.69373947 28 0
14.091266 -2.4153016 -0.4894042 28 0
14.145171 -2.4638326 -0.48823765 28 0
14.199194 -2.5105994 -0.48719743 28 0
19.810839 -3.4335754 -0.69327253 28 0
19.901318 -3.5044863 -0.69203746 28 0
20.050772 -3.5852709 -0.69292533 28 0
10.529469 -2.1196587 -0.33519703 0 0
10.554785 -2.1514988 -0.33383495 0 0
20.694599 -3.9863741 -0.6919663 28 0
20.76335 -4.0586696 -0.68932182 28 0
20.743298 -4.1155601 -0.68345541 28 0
20.329794 -4.100666 -0.6637181 28 0
19.807905 -4.066288 -0.64011222 28 0
19.336096 -4.0348039 -0.61877853 28 0
18.932798 -4.0165701 -0.59976125 28 0
18.550522 -3.9938159 -0.58218718 28 0
18.354235 -4.0086379 -0.5708136 28 0
18.255989 -4.0420332 -0.56280458 28 0
18.069572 -4.0567918 -0.55189246 28 0
18.039783 -4.1030126 -0.54621273 28 0
18.048977 -4.1573439 -0.5417912 28 0
18.038446 -4.2075672 -0.53669518 28 0
18.037527 -4.2598815 -0.53188157 28 0
18.036438 -4.3122206 -0.52703166 28 0
18.035181 -4.3645825 -0.52214545 28 0
18.043505 -4.4191856 -0.51752669 28 0
18.051645 -4.4738712 -0.51286507 28 0
18.059603 -4.5286384 -0.50816065 28 0
18.076448 -4.5885897 -0.5034095 28 0
18.074305 -4.6412096 -0.49832347 28 0
18.081701 -4.6962209 -0.4934881 28 0
18.07921 -4.7489104 -0.48832574 28 0
18.095945 -4.8064785 -0.48368877 28 0
18.064032 -4.8518872 -0.47761413 28 0
18.0804 -4.9095798 -0.47289431 28 0
18.077221 -4.9623709 -0.46758249 28 0
18.083538 -5.0177283 -0.462502 28 0
18.089668 -5.0731616 -0.45737842 28 0
18.172812 -5.1495409 -0.45429876 28 0
18.264515 -5.2319331 -0.45105669 28 0
18.347784 -5.3066182 -0.44810104 28 0
18.843874 -5.5006981 -0.45550498 28 0
18.857231 -5.5644107 -0.44980961 28 0
19.777748 -5.9457393 -0.46127358 28 0
19.761705 -6.0012102 -0.45472571 28 0
20.473795 -6.2730832 -0.46586335 28 0
20.667377 -6.394002 -0.46403322 28 0
20.812565 -6.5016265 -0.4608829 28 0
14.000149 -4.4722877 -0.2956003 0 0
13.874057 -4.4743257 -0.28839821 0 0
13.967449 -4.5445175 -0.28621274 0 0
14.00335 -4.597167 -0.28265601 0 0
13.962883 -4.6256371 -0.2773765 0 0
21.604959 -7.2162414 -0.42959261 28 0
21.869724 -7.3716164 -0.42781132 28 0
22.038912 -7.4969473 -0.42384186 28 0
22.1791 -7.613771 -0.41911843 28 0
22.318762 -7.7315187 -0.41423163 28 0
22.190495 -7.8283076 -0.39630482 28 0
22.960894 -8.1699324 -0.40276965 28 0
23.022787 -8.2652617 -0.39576653 28 0
23.056059 -8.3509064 -0.38815647 28 0
22.900993 -8.368701 -0.37720534 28 0
23.149792 -8.5333128 -0.3731629 28 0
14.172932 -5.3360868 -0.211337 0 0
14.121309 -5.3601041 -0.20558921 0 0
14.115596 -5.4037042 -0.20028086 0 0
14.119867 -5.4487872 -0.19536802 0 0
14.025477 -5.4991322 -0.18398523 0 0
14.066597 -5.5587668 -0.17951328 0 0
14.051718 -5.5965233 -0.17423193 0 0
23.614429 -9.5559654 -0.2829681 28 0
23.58725 -9.623085 -0.27342716 28 0
23.633823 -9.7205935 -0.26470536 28 0
23.670769 -9.8146286 -0.25577751 0 0
23.762671 -9.9321671 -0.24734828 0 0
10.223539 -4.2858701 -0.098322809 0 0
10.120595 -4.2725482 -0.093633257 0 0
10.154984 -4.319324 -0.090101041 0 0
10.143914 -4.3450189 -0.086309806 0 0
10.132142 -4.3721004 -0.08229246 0 0
10.112388 -4.3922596 -0.07861048 0 0
10.110227 -4.4218812 -0.07485006 0 0
10.098839 -4.4474277 -0.071001448 0 0
10.096482 -4.4770584 -0.067199387 0 0
10.094022 -4.5067081 -0.063374788 0 0
10.100542 -4.5405526 -0.05957995 0 0
10.09786 -4.5702648 -0.055705611 0 0
26.827944 -12.607491 -0.10944083 28 0
35.354794 -17.164562 -0.078151882 0 0
35.169666 -17.201155 -0.061449632 0 0
34.957764 -17.223383 -0.044796403 0 0
34.763916 -17.253426 -0.02825553 0 0
34.567375 -17.288012 -0.010890073 0 0
34.391602 -17.325006 0.0054842699 0 0
34.260395 -17.383904 0.021833912 0 0
34.173542 -17.465107 0.038225792 0 0
34.148575 -17.578264 0.054762185 0 0
34.096649 -17.677473 0.071312614 0 0
33.973701 -17.739117 0.087699592 0 0
33.8242 -17.786045 0.10397098 0 0
33.780441 -17.888952 0.12063294 0 0
33.753941 -18.001261 0.13743936 0 0
33.867558 -18.190086 0.15505692 0 0
33.848812 -18.307608 0.17214897 0 0
33.829636 -18.425165 0.18933134 0 0
33.740139 -18.503853 0.20612852 0 0
33.702797 -18.611488 0.22332594 0 0
33.612843 -18.689547 0.24018186 0 0
33.926968 -19.127804 0.27840218 0 0
16.027515 -8.9321327 0.12488617 0 0
16.019506 -8.9857464 0.13285017 0 0
16.045824 -9.0595818 0.14122643 0 0
16.037359 -9.1133461 0.14929421 0 0
15.967065 -9.1338243 0.15712854 0 0
16.009802 -9.2182283 0.16589232 0 0
15.666636 -9.0709057 0.16971873 0 0
31.954435 -19.121119 0.41717434 0 0
16.578808 -9.8027306 0.2074257 0 0
15.528171 -9.2769146 0.20887104 0 0
16.525141 -9.9643164 0.23433837 0 0
15.204768 -9.1899261 0.22006017 0 0
15.389603 -9.3650322 0.2316404 0 0
15.050431 -9.2638531 0.24209698 0 0
14.982157 -9.2771311 0.24909425 0 0
14.95578 -9.3174057 0.25691667 0 0
13.475669 -8.4017267 0.23417932 0 0
13.385293 -8.3932371 0.23972702 0 0
13.345 -8.417531 0.24632791 0 0
13.121998 -8.319108 0.24872951 0 0
13.189716 -8.4152231 0.25776178 0 0
13.288685 -8.5362511 0.26811785 0 0
13.32234 -8.6108475 0.27660829 0 0
13.118223 -8.5192995 0.27867037 0 0
12.995581 -8.4854841 0.28308189 0 0
12.979835 -8.525362 0.29026499 0 0
12.841234 -8.4790211 0.29408035 0 0
12.750678 -8.4683867 0.29954138 0 0
12.539459 -8.3684425 0.3009991 0 0
12.532733 -8.4630919 0.31586331 0 0
12.460311 -8.460577 0.32121345 0 0
12.428369 -8.4871702 0.32780641 0 0
12.356089 -8.4840317 0.33309084 0 0
12.291963 -8.4864664 0.33859742 0 0
12.115673 -8.4049997 0.34024084 0 0
11.956439 -8.3835001 0.34978968 0 0
12.545904 -8.8797312 0.37876257 0 0
12.520737 -8.9124441 0.38589615 0 0
12.305265 -8.7988825 0.3858538 0 0
12.033898 -8.6430063 0.38382018 0 0
12.253934 -8.8645115 0.40034026 0 0
12.173739 -8.8531609 0.40520045 0 0
11.968139 -8.7423725 0.40486088 0 0
11.613955 -8.5609169 0.40581274 0 0
13.572152 -10.302744 0.51737726 0 0
13.52062 -10.38054 0.53420728 0 0
13.521585 -10.441651 0.5439328 0 0
13.522283 -10.502852 0.5537191 0 0
13.431388 -10.609331 0.57880825 0 0
13.370492 -10.618649 0.58563846 0 0
13.385389 -10.692857 0.59641522 0 0
13.535912 -10.884962 0.61452723 0 0
12.076119 -9.7903996 0.56442982 0 0
12.09452 -9.8596087 0.57418793 0 0
12.081216 -9.9041128 0.58272898 0 0
11.750441 -9.7771568 0.59154576 0 0
11.751958 -9.8342686 0.60092455 0 0
12.987663 -11.028388 0.68747211 0 0
12.948514 -11.05546 0.69559407 0 0
11.907674 -10.323168 0.6686784 0 0
12.121889 -10.647213 0.70352751 0 0
12.08406 -10.671465 0.71121156 0 0
11.860084 -10.514482 0.70563561 0 0
11.86552 -10.579806 0.71627146 0 0
11.813733 -10.589182 0.72280598 0 0
11.988143 -10.950057 0.76807642 0 0
13.670913 -12.711946 0.90940332 0 0
11.427568 -10.506197 0.74570334 0 0
11.662669 -10.806446 0.77482611 0 0
11.084831 -10.391349 0.75931025 0 0
11.861513 -11.264176 0.83499128 0 0
10.988112 -10.467724 0.7822746 0 0
10.96483 -10.50267 0.79074311 0 0
10.961829 -10.559471 0.80104572 0 0
10.911092 -10.565071 0.80714327 0 0
11.076685 -10.80547 0.83289957 0 0
10.809768 -10.575605 0.81926894 0 0
10.732329 -10.551003 0.82278883 0 0
10.680202 -10.557124 0.82920635 0 0
10.629814 -10.561534 0.83516264 0 0
10.566193 -10.55083 0.83980465 0 0
10.529201 -10.569695 0.84700263 0 0
10.492172 -10.588423 0.85419995 0 0
10.45511 -10.607012 0.86139709 0 0
11.760964 -12.168242 1.0057036 0 0
11.803926 -12.288673 1.0228976 0 0
11.690125 -12.2279 1.0239092 0 0
12.023985 -12.689871 1.0721782 0 0
11.999911 -12.735726 1.0830407 0 0
10.104967 -10.626263 0.90188235 0 0
10.061581 -10.635813 0.90827537 0 0
9.9927597 -10.614467 0.91178733 0 0
9.955843 -10.631289 0.91885149 0 0
10.108368 -10.879543 0.94778425 0 0
9.7812548 -10.540723 0.92121321 0 0
11.725291 -13.007906 1.1623762 0 0
12.825435 -14.803416 1.3726695 0 0
9.5655298 -10.707025 0.97576541 0 0
13.159718 -15.512226 1.4670889 0 0
9.7569876 -11.148635 1.0365379 0 0
9.7084665 -11.147216 1.041768 0 0
11.540658 -13.721081 1.3155943 0 0
10.760861 -13.077551 1.2841883 0 0
10.029341 -12.142341 1.192297 0 0
9.9998236 -12.17489 1.2019259 0 0
11.223592 -13.968798 1.3991609 0 0
6.5645776 -7.4648724 0.71016866 0 0
6.5780787 -7.5279222 0.7205916 0 0
6.5513291 -7.5339303 0.72491294 0 0
6.5302615 -7.5480218 0.73011631 0 0
6.4695983 -7.5046296 0.72905588 0 0
6.431746 -7.4938116 0.7315203 0 0
6.405201 -7.4992967 0.7357688 0 0
6.3675165 -7.4881763 0.73818094 0 0
6.3354902 -7.4851575 0.74148089 0 0
6.2913213 -7.4661756 0.74319094 0 0
6.2704592 -7.4794574 0.74830472 0 0
6.2507176 -7.4919395 0.75313884 0 0
6.2461123 -7.5300922 0.76109922 0 0
6.2358899 -7.5599222 0.76814997 0 0
6.2363119 -7.6064811 0.77714747 0 0
6.22575 -7.6363349 0.78427052 0 0
6.2245317 -7.6837053 0.79365665 0 0
6.2242517 -7.7304049 0.80280834 0 0
6.2237229 -7.7771602 0.81201535 0 0
6.2282066 -7.8324156 0.82226789 0 0
10.233078 -14.351827 1.5940777 0 0
10.190903 -14.376634 1.6042974 0 0
9.8635254 -13.934269 1.5590082 0 0
9.8123255 -13.940952 1.5668635 0 0
9.7765503 -13.973009 1.5777678 0 0
10.857485 -15.978107 1.8345499 0 0
10.825428 -16.030371 1.8490448 0 0
10.768 -16.039663 1.858348 0 0
10.73559 -16.091722 1.872905 0 0
10.697966 -16.135107 1.8864473 0 0
10.833479 -16.70606 1.9823366 0 0
9.8595257 -15.085402 1.7878323 0 0
9.3422689 -14.358292 1.7112898 0 0
9.3096285 -14.397712 1.7235655 0 0
9.3434229 -14.559198 1.7514362 0 0
9.4992914 -14.948202 1.8085893 0 0
9.4787712 -15.014379 1.8246821 0 0
9.5258751 -15.202026 1.8560879 0 0
9.7740765 -15.777572 1.9383581 0 0
7.3044405 -11.193408 1.3502283 0 0
7.3271842 -11.315067 1.3717051 0 0
6.9442019 -10.805588 1.3213317 0 0
6.8995175 -10.793912 1.32517 0 0
7.209909 -11.492676 1.4239864 0 0
7.2696114 -11.694918 1.4568084 0 0
7.2507386 -11.736544 1.467942 0 0
8.0833931 -13.51652 1.7138792 0 0
7.9415545 -13.330414 1.695904 0 0
7.9197922 -13.383869 1.7099214 0 0
6.948967 -11.459662 1.4540591 0 0
3.2900958 -3.8576975 0.41811302 0 0
3.2846234 -3.8709624 0.42161837 0 0
3.2622421 -3.848279 0.42017409 0 0
3.2400146 -3.8254919 0.41869184 0 0
3.2387118 -3.8476486 0.42344108 0 0
3.2166531 -3.8247154 0.42191517 0 0
3.2070439 -3.8287799 0.42415196 0 0
3.197422 -3.8328133 0.4263896 0 0
3.1877875 -3.8368154 0.428628 0 0
3.1741259 -3.8317184 0.42958093 0 0
3.1644943 -3.8356473 0.43181455 0 0
3.150892 -3.8304541 0.43274954 0 0
3.1412635 -3.8343093 0.43497822 0 0
3.131623 -3.8381341 0.43720767 0 0
3.1219702 -3.8419273 0.43943787 0 0
3.1161511 -3.854825 0.44299418 0 0
3.1064463 -3.8585672 0.44523224 0 0
3.0967295 -3.8622775 0.44747096 0 0
3.0907612 -3.8751252 0.4510555 0 0
3.077261 -3.8696053 0.45195034 0 0
3.0675094 -3.8732224 0.45419091 0 0
3.0614212 -3.8860073 0.45779675 0 0
3.0552645 -3.8987818 0.46141636 0 0
3.0454216 -3.9023247 0.46367165 0 0
3.0319786 -3.8966057 0.46454301 0 0
3.029263 -3.9185562 0.46957463 0 0
3.0264223 -3.940515 0.47463289 0 0
3.0269594 -3.9717426 0.48112175 0 0
3.0203636 -3.9844558 0.48482922 0 0
5.8335238 -11.910851 1.7157116 0 0
5.8074331 -11.940098 1.7260344 0 0
5.7627563 -11.923261 1.729573 0 0
5.7051263 -11.868913 1.7272477 0 0
5.6446223 -11.804979 1.7233682 0 0
5.5974073 -11.77821 1.7252628 0 0
6.1917825 -13.767237 2.0521061 0 0
6.3429632 -14.783734 2.2440188 0 0
5.2502861 -11.868811 1.8012159 0 0
6.112308 -14.960295 2.3198605 0 0
5.2202392 -12.142664 1.8648674 0 0
5.1660419 -12.217921 1.8900999 0 0
6.1222363 -15.824184 2.5036047 0 0
4.9326262 -11.798286 1.8393383 0 0
5.8948259 -15.544546 2.4820642 0 0
5.82025 -15.450724 2.4745932 0 0
5.7180071 -15.251792 2.4492261 0 0
5.5916166 -14.957062 2.4073668 0 0
5.5575085 -15.00526 2.4236524 0 0
4.634521 -11.63506 1.8552403 0 0
4.6816025 -11.957832 1.9168415 0 0
5.4026899 -14.948529 2.4382393 0 0
4.4850287 -11.465768 1.844627 0 0
4.5627856 -11.922752 1.9299752 0 0
5.2843337 -15.023792 2.4752395 0 0
5.242269 -15.042423 2.4866784 0 0
4.4649572 -11.962794 1.9558673 0 0
4.4323282 -11.979268 1.9652158 0 0
4.3777404 -11.90958 1.9597715 0 0
4.3408432 -11.906575 1.9656858 0 0
4.3037548 -11.893477 1.9694582 0 0
5.0837479 -15.584351 2.6325543 0 0
5.167655 -16.189455 2.7491615 0 0
5.173408 -16.44836 2.804491 0 0
5.1219492 -16.686922 2.865768 0 0
5.2321901 -17.755772 3.0788269 0 0
5.2885385 -18.314653 3.1905112 0 0
5.0962529 -17.617998 3.073606 0 0
5.2646904 -18.776251 3.2956946 0 0
4.9529991 -17.430904 3.0590656 0 0
4.9076114 -17.457472 3.0732541 0 0
4.8804126 -17.600464 3.1095655 0 0
4.7080641 -17.534897 3.1272938 0 0
4.8996968 -18.976568 3.4072907 0 0
3.9049559 -13.358605 2.3626254 0 0
3.8673127 -13.373198 2.3729093 0 0
4.542757 -17.83304 3.2237256 0 0
4.5522385 -18.237408 3.3106649 0 0
3.8811557 -14.241869 2.5609107 0 0
4.4199862 -18.094261 3.3043656 0 0
3.6190567 -13.045859 2.3481593 0 0
3.6398649 -14.365493 2.6343102 0 0
3.7696209 -16.422176 3.0618584 0 0
3.725632 -16.465157 3.079901 0 0
3.6941791 -16.615194 3.1191049 0 0
3.671998 -16.852869 3.1758296 0 0
3.6263058 -16.8955 3.194207 0 0
3.7250798 -18.254442 3.4743803 0 0
3.6810365 -18.355577 3.5053871 0 0
3.6252491 -18.349268 3.5150461 0 0
3.1211405 -13.883736 2.6298056 0 0
3.0407073 -13.878345 2.6446521 0 0
2.9641261 -13.940898 2.6738136 0 0
2.9133091 -13.854909 2.6650429 0 0
2.879698 -13.94445 2.691608 0 0
2.8401532 -13.965512 2.7042611 0 0
2.8026962 -14.015752 2.7229609 0 0
2.7628055 -14.03656 2.7356718 0 0
2.7227881 -14.057239 2.7484009 0 0
2.6442258 -14.127522 2.7800202 0 0
2.6101933 -14.255303 2.8152778 0 0
2.5686917 -14.265696 2.8261232 0 0
2.5250223 -14.236861 2.8287585 0 0
2.4840102 -14.256757 2.8416498 0 0
2.7005801 -19.6908 3.9994352 0 0
2.6390131 -19.632271 3.9992874 0 0
2.5907502 -19.886295 4.065588 0 0
2.5364175 -20.02285 4.1071801 0 0
2.4740183 -19.953976 4.1050091 0 0
2.234098 -14.334202 2.9109793 0 0
2.1941323 -14.333641 2.9192731 0 0
2.1515636 -14.323146 2.9259365 0 0
2.111294 -14.410222 2.9537458 0 0
2.0668044 -14.311519 2.941324 0 0
2.0223691 -14.32009 2.9526751 0 0
1.9385197 -14.385778 2.9851305 0 0
1.8960346 -14.384225 2.9938917 0 0
1.8537923 -14.441126 3.0155728 0 0
1.8111701 -14.478349 3.0329981 0 0
1.7261826 -14.366893 3.0266771 0 0
1.6836677 -14.374422 3.0375681 0 0
1.6412092 -14.372051 3.0462766 0 0
1.5983298 -14.398815 3.0615525 0 0
1.5530316 -14.552229 3.1054344 0 0
1.5154949 -14.286117 3.0547113 0 0
1.4711974 -14.273306 3.0616007 0 0
1.3901247 -14.238043 3.0716569 0 0
1.3467834 -14.273722 3.0891433 0 0
1.3032084 -14.309249 3.1066689 0 0
1.2582459 -14.373834 3.1309593 0 0
1.2145311 -14.399303 3.1463344 0 0
1.1682738 -14.424403 3.1622176 0 0
1.1256421 -14.420371 3.1708665 0 0
1.0799755 -14.474563 3.1931043 0 0
1.0312679 -14.577198 3.2267685 0 0
0.93847489 -14.67496 3.2693353 0 0
0.87682462 -14.951851 3.3445423 0 0
0.84637952 -14.742889 3.3052368 0 0
0.75337309 -14.810148 3.3412895 0 0
0.65789992 -14.89612 3.3821349 0 0
0.61297387 -14.90007 3.3933213 0 0
0.29918554 -18.003889 4.1512423 0 0
0.24539213 -17.996538 4.1620245 0 0
0.19251961 -17.979338 4.1704464 0 0
0.13972902 -17.961973 4.1788425 0 0
0.015938025 -18.660063 4.3616791 0 0
-0.035943434 -18.613039 4.3633757 0 0
-0.10082997 -18.691475 4.3958144 0 0
-0.1618924 -18.220181 4.3061614 0 0
-0.77122009 -21.323624 5.1336246 0 0
-0.84510452 -21.359838 5.1591034 0 0
-1.0697402 -22.570156 5.4788795 0 0
0.13377817 -13.115858 3.111872 0 0
-1.1769135 -22.363203 5.4588723 0 0
-1.2510712 -22.398481 5.484354 0 0
-0.056521557 -13.612309 3.2665365 0 0
-0.093851015 -13.585269 3.2695537 0 0
-0.11807182 -13.471841 3.250459 0 0
-0.15484715 -13.444647 3.2533514 0 0
-0.22219519 -13.104273 3.1949553 0 0
-0.22472011 -12.866164 3.1433527 0 0
-0.38675064 -13.335629 3.2857721 0 0
-1.7566279 -20.888908 5.2754259 0 0
-1.7152215 -19.945818 5.0588245 0 0
-0.26377708 -11.806048 2.9207644 0 0
-0.40448266 -12.358744 3.0763407 0 0
-0.34573761 -11.845949 2.9497375 0 0
-0.37668562 -11.818431 2.9513972 0 0
-0.41694075 -11.838261 2.9657257 0 0
-0.45350769 -11.838978 2.9749839 0 0
-0.49205783 -11.84904 2.986794 0 0
-0.52080631 -11.811647 2.9858263 0 0
-0.56140053 -11.830921 3.0001934 0 0
-0.62537891 -11.623719 2.971173 0 0
-0.65936816 -11.614316 2.9777105 0 0
-1.734262 -16.152145 4.2360539 0 0
-0.74692267 -11.679843 3.0141261 0 0
-0.83570617 -11.59382 3.018059 0 0
-0.84429246 -11.480644 2.9957221 0 0
-0.88483864 -11.498645 3.0100052 0 0
-0.89956856 -11.413585 2.995369 0 0
-2.25455 -16.561239 4.4576149 0 0
-0.98018277 -11.439061 3.0216291 0 0
-0.96952695 -11.260653 2.9803228 0 0
-1.0247059 -11.334048 3.010448 0 0
-1.0180728 -11.052857 2.9480529 0 0
-1.0708137 -11.116586 2.975513 0 0
-1.0868833 -11.040257 2.9632587 0 0
-1.1295705 -11.066524 2.9800649 0 0
-1.1724572 -11.092609 2.9969015 0 0
-1.2101794 -11.100013 3.0083857 0 0
-1.6583574 -12.369679 3.3989463 0 0
-1.3183045 -11.102922 3.0374746 0 0
-1.3367214 -11.045305 3.0299883 0 0
-1.3632905 -11.015284 3.0305912 0 0
-1.3925639 -10.99439 3.0338838 0 0
-1.4188633 -10.964239 3.0344231 0 0
-1.465391 -10.998201 3.0540724 0 0
-1.5151097 -11.04111 3.0765021 0 0
-1.5502923 -11.038055 3.0852542 0 0
-1.5662963 -10.970248 3.0750775 0 0
-1.4678782 -10.359504 2.9185617 0 0
-1.6193585 -10.70206 3.0322649 0 0
-1.6850728 -10.789433 3.0685904 0 0
-1.7212124 -10.588199 3.0357139 0 0
-1.651152 -10.295399 2.9546378 0 0
-1.9029255 -10.792718 3.1285543 0 0
-1.8676133 -10.599369 3.0780501 0 0
-2.0937386 -11.107176 3.2472296 0 0
-2.0922358 -11.003368 3.2249308 0 0
-2.2267413 -11.059147 3.2737615 0 0
-2.3081367 -11.169552 3.3194811 0 0
-2.3019047 -11.056752 3.2940781 0 0
-2.3251431 -10.919709 3.2718158 0 0
-2.3533959 -10.896027 3.2747345 0 0
-2.3341341 -10.757121 3.2403126 0 0
-2.5227132 -11.027654 3.3495893 0 0
-2.5735805 -11.056275 3.3698344 0 0
-2.6058886 -11.040639 3.3756616 0 0
-5.5010104 -17.094133 5.4509211 0 0
-5.824513 -17.529697 5.6330156 0 0
-5.831645 -17.117069 5.5499053 0 0
-5.8666935 -17.055397 5.5472484 0 0
-3.8334754 -12.623313 4.0522013 0 0
-6.0387411 -17.147474 5.6155906 0 0
-6.2060785 -17.360754 5.707541 0 0
-4.6807785 -13.649062 4.507021 0 0
-4.7083292 -13.600659 4.505167 0 0
-4.7789502 -13.637247 4.533185 0 0
-5.1753249 -14.200788 4.7634358 0 0
-5.2307515 -14.201626 4.7798276 0 0
-5.268518 -14.168469 4.7841806 0 0
-3.188586 -9.57446 3.2444646 0 0
-3.1411216 -9.42453 3.2003329 0 0
-3.1683862 -9.4072657 3.2050152 0 0
-3.198838 -9.3991299 3.2124879 0 0
-3.2164748 -9.3652191 3.2110052 0 0
-3.2402589 -9.3385277 3.2128189 0 0
-3.2624323 -9.3127537 3.2143502 0 0
-3.2893558 -9.2951097 3.2189398 0 0
-3.3162258 -9.277379 3.2235131 0 0
-3.3381352 -9.2514172 3.2249784 0 0
-3.5374737 -9.5180826 3.337872 0 0
-3.5848751 -9.5319643 3.3549445 0 0
-3.6722844 -9.6103849 3.3968706 0 0
-3.7652531 -9.6963806 3.4419918 0 0
-3.8537881 -9.7737751 3.4840934 0 0
-3.9529889 -9.8667459 3.5325148 0 0
-4.05792 -9.9671612 3.5841589 0 0
-4.1584377 -10.058949 3.6327863 0 0
-4.2544627 -10.142156 3.6783826 0 0
-4.3613944 -10.240752 3.7303386 0 0
-4.4741964 -10.346674 3.7855392 0 0
-4.5825243 -10.44399 3.8377116 0 0
-4.6967659 -10.548585 3.8931358 0 0
-4.8064766 -10.644604 3.9455214 0 0
-4.9274306 -10.755745 4.0043206 0 0
-5.0756974 -10.905484 4.0790339 0 0
-5.219645 -11.046471 4.1507435 0 0
-5.2592063 -11.028684 4.1595559 0 0
-5.3830738 -11.137025 4.2188005 0 0
-5.5131092 -11.252423 4.2813363 0 0
-5.6548142 -11.382584 4.3503542 0 0
-7.5387363 -13.804407 5.4007697 0 0
-7.5300508 -13.702955 5.3787093 0 0
-7.5374947 -13.624744 5.3661485 0 0
-7.5333948 -13.531321 5.347106 0 0
-15.675754 -24.383879 9.9615192 0 0
-15.347643 -23.626665 9.7151136 0 0
-15.674481 -23.74976 9.8414774 0 0
-15.585989 -23.479109 9.7626371 0 0
-15.663275 -23.426867 9.777319 0 0
-15.800004 -23.299194 9.7968273 0 0
-15.859297 -23.22389 9.80163 0 0
-15.812793 -23.014856 9.7478886 0 0
-16.269442 -23.43206 9.9710484 0 0
-16.926672 -23.647438 10.221136 0 0
-16.926767 -23.495686 10.193202 0 0
-16.263273 -22.391157 9.7769194 0 0
-16.313242 -22.307617 9.7777052 0 0
-16.350691 -22.209558 9.7718477 0 0
-16.479486 -22.21941 9.815237 0 0
-17.403393 -23.00972 10.258021 0 0
-17.539299 -23.011736 10.302439 0 0
-17.669334 -22.87594 10.320083 0 0
-17.761723 -22.826941 10.341295 0 0
-17.831329 -22.760153 10.351937 0 0
-16.702377 -21.228874 9.7085094 0 0
-16.798674 -21.200659 9.7349339 0 0
-16.895006 -21.172022 9.7613411 0 0
-16.60828 -20.726629 9.5879402 0 0
-14.275294 -18.076839 8.3508596 0 0
-16.837008 -20.711235 9.6602812 0 0
-15.331948 -18.857454 8.8367281 0 0
-15.356653 -18.764954 8.8285351 0 0
-14.954535 -17.879944 8.540143 0 0
-15.678494 -18.388363 8.8690271 0 0
-15.747511 -18.342278 8.8839397 0 0
-15.470287 -17.504471 8.6466761 0 0
-16.152781 -18.053621 8.9692764 0 0
-15.895178 -17.693094 8.8212337 0 0
-15.996434 -17.678461 8.8526745 0 0
-16.32321 -17.876713 8.9961576 0 0
-16.809008 -18.22114 9.2179871 0 0
-16.101549 -17.445406 8.8483162 0 0
-15.975194 -17.218386 8.7673073 0 0
-16.013489 -17.145363 8.767868 0 0
-16.100042 -17.116722 8.7922382 0 0
-16.395182 -17.277468 8.9189692 0 0
-16.475393 -17.241022 8.9399691 0 0
-16.527613 -17.1791 8.9472694 0 0
-17.162621 -17.414488 9.2018766 0 0
-17.172987 -17.313183 9.18859 0 0
-17.232553 -17.255125 9.1992435 0 0
-17.20863 -17.016125 9.1516714 0 0
-17.295933 -16.982262 9.1758966 0 0
-15.173983 -14.793927 8.0925817 0 0
