# .PCD v0.7 - Point Cloud Data file format
VERSION 0.7
FIELDS x y z label object
SIZE 4 4 4 4 4
TYPE F F F I I
COUNT 1 1 1 1 1
WIDTH 1311
HEIGHT 1
VIEWPOINT 0 0 0 1 0 0 0
POINTS 1311
DATA ascii
0.79537261 0.49581873 0.26869053 0 0
0.79525775 0.4991999 0.26868802 0 0
0.7758016 0.50202161 0.27370313 0 0
0.75635237 0.50496924 0.27871588 0 0
0.77562064 0.5089106 0.27368721 0 0
0.74644905 0.51514113 0.28119197 0 0
0.60120511 0.51680994 0.31881681 0 0
0.41724476 0.5187909 0.36647281 0 0
0.35911855 0.52328146 0.38149923 0 0
0.26228651 0.52777034 0.40655708 0 0
0.19450782 0.532884 0.42408171 0 0
0.078343526 0.53859818 0.45414165 0 0
-0.095883131 0.54544598 0.49924076 0 0
-16.048429 0.70812291 4.6321087 0 0
-16.018869 0.76570952 4.6240349 0 0
-23.866907 1.0301137 6.6559629 0 0
-23.923475 1.1147248 6.6700563 0 0
-16.576389 1.0084627 4.7668686 0 0
-24.062559 1.3698556 6.7044778 0 0
-16.523237 1.1824458 4.7520199 0 0
-16.501909 1.2411979 4.7461505 0 0
-17.757233 1.3532875 5.0707769 0 0
-17.968397 1.6194299 5.1240883 0 0
-17.974741 1.6841714 5.1254187 0 0
-26.687864 8.040966 7.383019 0 0
-26.712944 8.1407394 7.3900352 0 0
-26.497437 8.2795811 7.3353901 0 0
-26.380116 8.3454866 7.3056092 0 0
-26.309389 8.4237986 7.2879071 0 0
-29.832287 9.5217609 8.2009926 0 0
-29.804655 9.6243505 8.1945639 0 0
-26.425817 9.2380848 7.3235264 0 0
-26.277086 9.297164 7.2857885 0 0
-19.713657 7.3274903 5.5851059 0 0
-19.720514 7.4061489 5.5874991 0 0
-19.745584 7.4908848 5.5946293 0 0
-19.733425 7.5638075 5.5921192 0 0
-19.713013 7.629806 5.5874457 0 0
-19.624445 7.9086328 5.5672235 0 0
-20.059303 8.2954988 5.682313 0 0
-20.062872 8.376255 5.6840186 0 0
-18.747316 8.0508852 5.3439407 0 0
-19.097931 8.2554235 5.4357777 0 0
-19.611378 8.523366 5.5699525 0 0
-18.070835 8.2427969 5.1729522 0 0
-17.992815 8.2860565 5.1534977 0 0
-17.607328 8.2075691 5.0541072 0 0
-17.845604 8.3748913 5.1169062 0 0
-18.18362 8.5801239 5.2056327 0 0
-18.212921 8.6669149 5.2141433 0 0
-32.439594 14.566726 8.9165583 0 0
-32.333534 14.651784 8.8905268 0 0
-20.093729 9.6772671 5.7064185 0 0
-31.421759 14.526117 8.6563711 0 0
-31.441387 14.66046 8.6630735 0 0
-19.561892 9.7757425 5.5720644 0 0
-16.29668 8.4347162 4.7225027 0 0
-16.692535 8.7492876 4.8275223 0 0
-17.45771 9.2373266 5.0289674 0 0
-18.467106 9.7712708 5.2932281 0 0
-16.839586 9.1719522 4.8708019 0 0
-17.298082 9.4587183 4.9914851 0 0
-17.276625 9.6738338 4.9891801 0 0
-17.576365 10.047865 5.0709267 0 0
-17.416168 10.046071 5.0302501 0 0
-17.881283 10.429347 5.1542048 0 0
-17.746571 10.440484 5.1202292 0 0
-17.113701 10.273443 4.9571724 0 0
-17.131308 10.43673 4.9643049 0 0
-18.648151 11.475849 5.3655515 0 0
-16.443781 10.373775 4.7892909 0 0
-17.428091 11.143592 5.0514112 0 0
-17.412498 11.21548 5.0487409 0 0
-17.074802 11.187023 4.9629817 0 0
-17.067469 11.26274 4.9625006 0 0
-17.043516 11.409487 4.959146 0 0
-17.347422 11.666438 5.0405116 0 0
-17.372105 11.76306 5.0485358 0 0
-17.346708 11.908873 5.0448937 0 0
-27.206724 18.007483 7.6434965 0 0
-27.077883 18.056093 7.6120291 0 0
-26.828487 18.156456 7.5512934 0 0
-26.981689 18.377775 7.5941811 0 0
-26.959915 18.491827 7.5909896 0 0
-26.970793 18.626675 7.5964346 0 0
-26.931631 18.730473 7.5887074 0 0
-29.501408 20.629425 8.2723141 0 0
-29.538 20.794546 8.2849054 0 0
-29.4102 20.853647 8.2541018 0 0
-27.833794 20.099125 7.8433027 0 0
-51.720875 36.34309 14.169473 0 0
-49.55265 36.334755 13.627334 0 0
-48.627449 36.156723 13.392436 0 0
-48.270893 36.144772 13.303232 0 0
-47.922859 36.136574 13.216272 0 0
-45.954552 36.114891 12.725696 0 0
-25.824402 21.402857 7.3714323 0 0
-25.662489 21.410666 7.3313966 0 0
-25.582714 21.48794 7.3134522 0 0
-24.370579 20.693991 6.9932938 0 0
-24.076468 20.599253 6.9180064 0 0
-21.866245 19.130136 6.3337855 0 0
-20.779823 18.394228 6.0462995 0 0
-20.786169 18.516285 6.0509167 0 0
-20.616198 18.49791 6.0083723 0 0
-20.454184 18.484756 5.9679446 0 0
-20.384537 18.656075 5.9550729 0 0
-20.646664 18.989059 6.0283904 0 0
-20.537039 19.018305 6.0020595 0 0
-20.60384 19.186996 6.0229206 0 0
-20.433765 19.165501 5.9803786 0 0
-20.48884 19.332355 5.9983268 0 0
-20.408583 19.385759 5.9799352 0 0
-20.015158 19.171812 5.8773017 0 0
-20.099066 19.363934 5.9030724 0 0
-20.259418 19.616858 5.949306 0 0
-19.675583 19.232096 5.795269 0 0
-19.027945 18.785673 5.6238885 0 0
-18.817307 18.717339 5.5702305 0 0
-18.687994 18.71933 5.5384922 0 0
-18.727163 18.870712 5.5522475 0 0
-18.316303 18.612936 5.4442616 0 0
-18.151516 18.579758 5.4028888 0 0
-18.146795 18.690746 5.4047999 0 0
-18.344225 18.987177 5.4614635 0 0
-19.817379 20.460474 5.8637676 0 0
-17.985804 18.891344 5.3709259 0 0
-17.688454 18.724749 5.2933989 0 0
-17.596706 18.754541 5.2717776 0 0
-17.643679 18.908335 5.2876401 0 0
-17.957882 19.33667 5.3767138 0 0
-17.945814 19.438 5.3766665 0 0
-17.501028 19.241917 5.2623458 0 0
-17.443466 19.304663 5.250113 0 0
-18.872629 20.952736 5.6468859 0 0
-19.095543 21.303434 5.7115302 0 0
-19.490194 21.829226 5.8232007 0 0
-19.528353 22.131144 5.8414502 0 0
-19.248472 21.983368 5.7689428 0 0
-19.628592 22.508472 5.8771191 0 0
-18.599743 21.721365 5.6033769 0 0
-18.520954 21.77351 5.5858269 0 0
-18.584358 21.974756 5.6073418 0 0
-18.484615 22.005358 5.5840821 0 0
-18.122324 21.756342 5.488606 0 0
-17.986832 21.738564 5.4552255 0 0
-19.252827 23.235888 5.8081322 0 0
-17.169397 21.123121 5.2382326 0 0
-17.247816 21.471558 5.2680717 0 0
-17.289007 21.650108 5.2836285 0 0
-17.109228 21.577215 5.2379026 0 0
-17.044474 21.638733 5.2242107 0 0
-17.465576 22.524296 5.3539591 0 0
-17.003458 22.134748 5.2301311 0 0
-17.056551 22.473095 5.2538123 0 0
-16.877615 22.396496 5.2082872 0 0
-16.867735 22.524733 5.2100773 0 0
-16.914429 22.720774 5.2276883 0 0
-17.427292 23.620821 5.3803172 0 0
-17.103491 23.525358 5.2995062 0 0
-16.932966 23.464973 5.2566385 0 0
-16.829042 23.476738 5.2321377 0 0
-16.708925 23.476103 5.2033615 0 0
-16.712347 23.628489 5.2092791 0 0
-16.647425 23.696455 5.1960354 0 0
-16.594519 23.779661 5.186193 0 0
-16.48642 23.79311 5.1608267 0 0
-16.773144 24.310375 5.2468023 0 0
-16.740351 24.414158 5.2425056 0 0
-17.462334 25.503658 5.4518113 0 0
-17.832623 26.484413 5.5736494 0 0
-17.53997 26.766785 5.5138659 0 0
-17.941858 27.665478 5.640655 0 0
-4.0721002 8.7450714 1.6878037 0 0
-4.0640411 8.7883615 1.6874233 0 0
-4.0500665 8.8236351 1.6853644 0 0
-4.0131831 8.8266563 1.6767467 0 0
-3.9820027 8.8376007 1.6697646 0 0
-3.9564471 8.8565283 1.6644021 0 0
-3.9308376 8.87537 1.6590292 0 0
-3.912189 8.9012241 1.6555562 0 0
-3.8975666 8.9362307 1.6533669 0 0
-3.8938692 8.987565 1.6543477 0 0
-20.513186 34.175945 6.4808397 0 0
-20.360729 34.174473 6.4449353 0 0
-20.203093 34.164089 6.4075093 0 0
-20.05147 34.149059 6.3713465 0 0
-19.899771 34.145634 6.3356118 0 0
-19.742971 34.133244 6.2983723 0 0
-19.639593 34.203465 6.2767286 0 0
-19.520123 34.248329 6.2503967 0 0
-19.742592 34.836334 6.3243089 0 0
-19.679585 34.961323 6.3142128 0 0
-17.893749 34.159817 5.8674078 0 0
-17.498449 33.962669 5.7679892 0 0
-17.239458 33.981724 5.7085805 0 0
-17.093496 33.954357 5.6736689 0 0
-16.930771 33.936604 5.6352601 0 0
-16.79513 33.925247 5.6033969 0 0
-16.65403 33.91671 5.5703979 0 0
-16.503637 33.890255 5.534574 0 0
-16.367798 33.889225 5.5031233 0 0
-16.204851 33.823437 5.4629092 0 0
-16.055532 33.795078 5.427319 0 0
-15.915875 33.783554 5.3946371 0 0
-15.776484 33.771446 5.3620143 0 0
-15.637345 33.758766 5.3294468 0 0
-15.498465 33.745525 5.2969365 0 0
-15.379165 33.754967 5.2698469 0 0
-15.236184 33.73185 5.2360435 0 0
-15.111528 33.743427 5.2078438 0 0
-14.97353 33.728027 5.1755304 0 0
-14.898083 33.835968 5.1624937 0 0
-14.822141 33.943752 5.1493568 0 0
-14.874471 34.29697 5.1754298 0 0
-14.822999 34.458218 5.170073 0 0
-14.445186 33.951424 5.0632911 0 0
-14.294923 33.906422 5.0271039 0 0
-14.285238 34.423084 5.0456505 0 0
-14.159813 34.430901 5.017323 0 0
-14.017692 34.402332 4.9837365 0 0
-13.890029 34.388309 4.9540548 0 0
-13.765119 34.39465 4.9258437 0 0
-13.632084 34.382484 4.895051 0 0
-13.499264 34.369804 4.8643064 0 0
-13.380611 34.371906 4.8374052 0 0
-13.058347 33.932564 4.7462378 0 0
-12.879362 33.808903 4.7005315 0 0
-12.749092 33.793411 4.6703291 0 0
-12.721916 34.013912 4.6732035 0 0
-12.650324 34.134373 4.6619225 0 0
-12.544871 34.16087 4.6391258 0 0
-12.456898 34.244427 4.622654 0 0
-12.072462 33.623474 4.5100732 0 0
-11.936297 33.586533 4.477767 0 0
-11.815653 33.58572 4.4504814 0 0
-11.691392 33.575279 4.421999 0 0
-11.572964 33.56192 4.3947301 0 0
-11.452811 33.559757 4.3675551 0 0
-11.332808 33.557152 4.340415 0 0
-11.212937 33.554104 4.3133044 0 0
-11.107717 33.587578 4.2910337 0 0
-11.059895 33.768799 4.2878656 0 0
-11.071666 34.10759 4.3047047 0 0
-10.554862 33.663723 4.1701298 0 0
-9.3728018 33.572964 3.9023552 0 0
-9.1983633 33.39307 3.8558793 0 0
-9.0659027 33.334984 3.8239591 0 0
-8.9643583 33.349926 3.8020492 0 0
-8.8449116 33.328697 3.7746327 0 0
-8.7287397 33.31649 3.7483478 0 0
-8.6097431 33.294373 3.72103 0 0
-8.5025768 33.288883 3.6970642 0 0
-8.3899193 33.284916 3.6719658 0 0
-8.2803421 33.290043 3.647959 0 0
-8.1621199 33.266262 3.6208122 0 0
-8.0527744 33.270592 3.5968585 0 0
-7.9377933 33.255493 3.5708389 0 0
-7.8286157 33.238197 3.546021 0 0
-7.7224069 33.250923 3.5231757 0 0
-7.6135116 33.232887 3.4984212 0 0
-7.501967 33.225754 3.4735744 0 0
-7.3905616 33.218227 3.4487588 0 0
-7.2819557 33.219898 3.4249768 0 0
-7.170805 33.211594 3.4002194 0 0
-3.8355379 21.365017 2.1516898 0 0
-3.7300739 21.22998 2.1226776 0 0
-3.5632143 21.101877 2.0805457 0 0
-3.484936 21.061903 2.0616775 0 0
-3.3970742 20.983061 2.0390217 0 0
-3.2856314 21.075403 2.0187559 0 0
-3.596221 22.908567 2.1671162 0 0
-3.4279265 22.797979 2.1256216 0 0
-2.5681839 20.835745 1.8522997 0 0
-2.5057147 20.850372 1.8394341 0 0
-2.4446125 20.854258 1.8263978 0 0
-2.3861349 20.887999 1.8152654 0 0
-2.3215103 20.892282 1.8015069 0 0
-2.6694241 22.947529 1.968027 0 0
-2.6023788 22.972307 1.9546818 0 0
-2.5276234 22.957752 1.9379349 0 0
-2.404485 23.044594 1.9153236 0 0
-1.9303439 20.873592 1.7164692 0 0
-1.8659725 20.876368 1.702774 0 0
-1.8384838 21.084959 1.7062087 0 0
-1.7993872 21.234684 1.7045312 0 0
-1.745859 21.305786 1.6962519 0 0
-3.6012001 33.227459 2.6277013 0 0
-3.5359325 33.462154 2.6242878 0 0
-1.4604419 21.145187 1.6280361 0 0
-1.3831127 21.067616 1.6080532 0 0
-1.3350688 21.176992 1.6027293 0 0
-1.2967093 21.7999 1.6225924 0 0
-1.2213055 21.741375 1.6039211 0 0
-1.1554824 21.721508 1.5890385 0 0
-1.0930172 21.751375 1.5771216 0 0
-1.0317343 21.790939 1.5659041 0 0
-0.97544289 21.869873 1.5575329 0 0
-0.95818937 22.255329 1.5712826 0 0
-0.88513684 22.215332 1.5540138 0 0
-0.82333642 22.23398 1.5417864 0 0
-0.75774765 22.252941 1.5287833 0 0
-0.69783962 22.321241 1.5192229 0 0
-1.8867711 35.332687 2.3589652 0 0
-1.7856517 35.344765 2.3382289 0 0
-1.4449106 33.044079 2.1622796 0 0
-1.3390449 32.995796 2.1378431 0 0
-1.2316291 32.927288 2.1121809 0 0
-1.1283108 32.898155 2.0891824 0 0
-1.0251896 32.868675 2.0662267 0 0
-0.92739499 32.898518 2.0470974 0 0
-0.84009838 33.057365 2.0360422 0 0
-0.74399269 33.046318 2.0154421 0 0
-1.1263399 39.375122 2.3829854 0 0
-1.0409325 41.586277 2.4657018 0 0
-0.91459715 41.596493 2.439832 0 0
-0.78633642 41.576408 2.4122043 0 0
-0.65883845 41.565876 2.3851914 0 0
-0.037388761 33.003304 1.8661942 0 0
0.062446903 32.910034 1.8412046 0 0
0.16464898 32.866642 1.818011 0 0
0.26656342 32.822914 1.7948788 0 0
0.36820674 32.778854 1.7718045 0 0
0.46869543 32.754402 1.74988 0 0
0.56311584 32.879299 1.7360339 0 0
0.65967423 32.814037 1.7130954 0 0
0.75933325 32.808605 1.6922593 0 0
0.85955054 32.782887 1.6704001 0 0
0.61732787 45.305725 2.2913392 0 0
0.75511187 45.310707 2.2631721 0 0
0.96710557 41.800411 2.059438 0 0
1.0897459 41.654194 2.0275373 0 0
1.2233077 41.657745 2.0002432 0 0
1.4545274 32.851479 1.5510701 0 0
1.5544071 32.803539 1.5283856 0 0
1.6484716 32.755184 1.5068911 0 0
1.7477175 32.726589 1.4852524 0 0
1.8412602 32.677647 1.4638692 0 0
1.9456321 32.668446 1.4420999 0 0
2.0400875 32.83868 1.4305605 0 0
2.1395802 32.848785 1.4107037 0 0
2.3920436 45.196186 1.9224159 0 0
2.5296214 45.205463 1.8947903 0 0
2.6682088 45.264244 1.8692404 0 0
2.8064897 45.29261 1.8423897 0 0
2.9365492 45.290695 1.8158525 0 0
3.0759423 45.348167 1.7901484 0 0
2.8300629 32.840828 1.2698016 0 0
2.9267707 32.758522 1.2464314 0 0
3.0237181 32.695881 1.2239258 0 0
3.1203032 32.632938 1.2014968 0 0
3.2182131 32.609623 1.1806225 0 0
3.315527 32.576008 1.1594164 0 0
3.4141197 32.572033 1.1393191 0 0
3.5221064 32.747387 1.1255105 0 0
3.6212251 32.742756 1.1053107 0 0
4.579536 45.212528 1.4799696 0 0
4.2484875 37.933723 1.2153149 0 0
4.3561563 37.817192 1.1883723 0 0
4.461019 37.670422 1.1606375 0 0
4.5708971 37.603085 1.1355283 0 0
4.3146248 32.701435 0.96406931 0 0
4.4041362 32.644848 0.94356787 0 0
4.4988065 32.587582 0.92201853 0 0
4.5931468 32.530018 0.90053868 0 0
4.6925025 32.531902 0.88077283 0 0
4.7854853 32.523991 0.8618511 0 0
4.8791943 32.465546 0.84050691 0 0
4.9950562 32.635639 0.825131 0 0
6.3478093 44.98896 1.1158984 0 0
6.4793963 44.92585 1.0868572 0 0
6.6159878 44.912033 1.0590779 0 0
6.7449656 44.898579 1.0328501 0 0
6.8826013 44.893837 1.0053204 0 0
7.0202761 44.888653 0.97778594 0 0
5.6827793 32.583996 0.68619239 0 0
5.7752886 32.522823 0.66511422 0 0
5.8674593 32.461369 0.64410704 0 0
5.9618511 32.419472 0.62356132 0 0
6.0560393 32.377281 0.60305935 0 0
6.1485729 32.365242 0.58426094 0 0
8.0273991 45.207401 0.79315883 0 0
6.3752909 32.556606 0.54821956 0 0
6.4709563 32.523041 0.5278824 0 0
6.5386529 32.301243 0.50458431 0 0
7.0145798 34.090622 0.49164718 0 0
7.1380415 34.203243 0.47249892 0 0
9.0057926 45.175362 0.5995205 0 0
9.1399193 45.133724 0.57139307 0 0
9.211998 44.767433 0.54085612 0 0
7.2634182 32.47147 0.37022269 0 0
7.3477244 32.406509 0.35084796 0 0
7.446043 32.359127 0.32954273 0 0
7.5404348 32.322231 0.30949077 0 0
7.6364493 32.294888 0.2895669 0 0
7.8709431 32.495773 0.2529299 0 0
7.9655175 32.457569 0.2328508 0 0
8.5431852 34.342045 0.20480207 0 0
8.2304096 32.252979 0.17235747 0 0
8.3145819 32.195171 0.15348783 0 0
8.4120016 32.175179 0.13375281 0 0
3.4853132 8.3391895 0.026676659 0 0
3.4716363 8.1580915 0.021275956 0 0
3.5057197 8.2019014 0.016643442 0 0
3.5357833 8.226038 0.011917789 0 0
3.5529008 8.1915102 0.0070911017 0 0
3.5742507 8.1764488 0.0023157122 0 0
3.6000133 8.1808167 -0.0024448824 0 0
3.6235487 8.1753559 -0.0072077718 0 0
3.6503618 8.1895933 -0.011726201 0 0
3.6715877 8.1742477 -0.016474139 0 0
3.6998284 8.1879921 -0.021280229 0 0
3.7281671 8.2016325 -0.026105551 0 0
3.7614517 8.2345715 -0.03102397 0 0
3.7900534 8.2479858 -0.035901237 0 0
12.717641 41.417431 -0.2843377 0 0
12.836462 41.385456 -0.30834976 0 0
10.678807 32.583019 -0.28263742 0 0
10.694091 32.256897 -0.29975846 0 0
10.802572 32.267788 -0.31985897 0 0
10.916701 32.297531 -0.34019259 0 0
11.017344 32.299618 -0.35915774 0 0
11.11789 32.280582 -0.37900597 28 0
11.21557 32.251629 -0.39872527 28 0
11.327485 32.270264 -0.41905388 28 0
11.430938 32.259777 -0.43902847 28 0
11.537324 32.258503 -0.45914054 28 0
11.637888 32.237762 -0.47897938 28 0
11.732456 32.197601 -0.49850956 28 0
11.817852 32.128536 -0.51754284 28 0
11.872495 31.963991 -0.53488857 28 0
11.972271 31.942131 -0.55455786 28 0
12.062713 31.89143 -0.57369721 28 0
12.177984 31.916416 -0.59422749 28 0
12.2777 31.893555 -0.61387682 28 0
12.333787 31.758459 -0.63014638 28 0
12.355945 31.507856 -0.64499098 28 0
12.448003 31.465469 -0.66399211 28 0
12.546449 31.441696 -0.68337482 28 0
12.588719 31.257168 -0.69910622 28 0
12.596663 30.978397 -0.71243024 28 0
12.636578 30.794033 -0.72768193 28 0
12.631407 30.487436 -0.73971212 28 0
12.573187 30.040234 -0.74781877 28 0
12.539909 29.668747 -0.75733942 28 0
12.535713 29.382113 -0.76865715 28 0
12.470281 28.936619 -0.77530438 28 0
12.345678 28.342186 -0.77724713 28 0
12.327958 28.038349 -0.78673637 28 0
12.294092 27.697573 -0.79477572 28 0
12.232893 27.292046 -0.80046445 28 0
12.193974 26.963406 -0.80703282 28 0
12.15769 26.633436 -0.81412894 28 0
12.178734 26.452488 -0.82555431 28 0
12.209962 26.299477 -0.83767605 28 0
12.240361 26.146503 -0.84962904 28 0
12.254748 25.956596 -0.86015898 28 0
12.263748 25.768658 -0.86960429 28 0
12.149173 25.274609 -0.86904079 28 0
12.066503 24.864445 -0.87084299 28 0
12.036027 24.583858 -0.87684196 28 0
11.43805 22.980448 -0.8334946 28 0
11.360682 22.61072 -0.83456004 28 0
11.301051 22.287518 -0.83694184 28 0
11.235509 21.95575 -0.83858359 28 0
11.070996 21.405258 -0.83111858 28 0
10.854338 20.746485 -0.81856543 28 0
10.745098 20.346008 -0.81501782 28 0
10.723554 20.135956 -0.81965488 28 0
10.696659 19.917131 -0.82366478 28 0
10.685219 19.734972 -0.82898146 28 0
10.676951 19.562132 -0.83448523 28 0
10.676182 19.407625 -0.84059542 28 0
10.678809 19.262337 -0.84693778 28 0
10.680639 19.11721 -0.85311842 28 0
10.681653 18.972254 -0.85913366 28 0
10.68186 18.827469 -0.86498564 28 0
10.698764 18.718782 -0.87239373 28 0
10.653448 18.484613 -0.87358987 28 0
10.603732 18.252439 -0.87390298 28 0
10.627049 18.162241 -0.88169771 28 0
10.591608 17.956013 -0.88352704 28 0
10.582045 17.803658 -0.88785851 28 0
10.612484 17.731611 -0.89618164 28 0
10.61973 17.61512 -0.90209085 28 0
10.603384 17.454393 -0.90550572 28 0
10.609231 17.338215 -0.9111315 28 0
10.623746 17.239841 -0.91759878 28 0
10.605009 17.079756 -0.92053068 28 0
10.441529 16.657114 -0.90786904 28 0
10.297263 16.269304 -0.897268 28 0
10.298121 16.154806 -0.90188819 28 0
10.284017 16.014147 -0.90485024 28 0
10.095971 15.558656 -0.88905102 28 0
10.045468 15.35787 -0.88784724 28 0
10.022989 15.209876 -0.88957566 28 0
9.9947987 15.053456 -0.89060545 28 0
9.9214611 14.81914 -0.8866123 28 0
9.7824907 14.472645 -0.87527996 28 0
9.5099497 13.903349 -0.84881079 28 0
9.3762341 13.576564 -0.83763778 28 0
9.3862314 13.500999 -0.8422929 28 0
9.3604937 13.365202 -0.84291726 28 0
9.3543024 13.264077 -0.84566849 28 0
9.3271475 13.128794 -0.84600735 28 0
9.319746 13.028065 -0.84851468 28 0
9.3169518 12.936051 -0.85149711 28 0
9.3240328 12.861238 -0.85556275 28 0
9.2942705 12.726888 -0.85537642 28 0
9.2951527 12.643843 -0.85864586 28 0
9.2850771 12.543942 -0.86061358 28 0
9.2533245 12.410351 -0.86002678 28 0
9.1623869 12.184127 -0.85250258 28 0
9.1768827 12.127258 -0.85715479 28 0
9.0999174 11.92733 -0.85108787 28 0
9.1026421 11.853989 -0.85427552 28 0
9.0887356 11.755595 -0.85547262 28 0
9.110465 11.717233 -0.86067897 28 0
9.1284847 11.669204 -0.86558622 28 0
9.1188173 11.579513 -0.86718321 28 0
9.1086683 11.48999 -0.86868328 28 0
9.1091251 11.417233 -0.87141246 28 0
9.1166258 11.35158 -0.87510163 28 0
9.1033192 11.263758 -0.87597007 28 0
9.1194782 11.216063 -0.8804999 28 0
9.0846148 11.094328 -0.87883675 28 0
9.1001005 11.046796 -0.88323045 28 0
9.1096735 10.991073 -0.88688666 28 0
9.1246881 10.943566 -0.89118451 28 0
9.1337376 10.887912 -0.8947342 28 0
9.1598253 10.856709 -0.9003529 28 0
9.1857967 10.825437 -0.90594739 28 0
9.2058229 10.786004 -0.91079772 28 0
9.2139864 10.73038 -0.91416711 28 0
8.9694719 10.328089 -0.88618332 28 0
8.9996128 10.305532 -0.8921634 28 0
9.0296783 10.282884 -0.89812756 28 0
9.0817795 10.293439 -0.90671551 28 0
9.1237488 10.286504 -0.91416556 28 0
9.171731 10.287371 -0.92237079 28 0
9.2017412 10.264174 -0.92831922 28 0
9.2075157 10.20915 -0.93120521 28 0
9.1948318 10.13044 -0.93173838 28 0
9.1695509 10.036118 -0.93064469 28 0
9.1498747 9.9499226 -0.93022537 28 0
9.1358786 9.8717995 -0.93049496 28 0
9.1353865 9.8082476 -0.93256867 28 0
9.1066628 9.7160892 -0.9307887 28 0
9.0852299 9.6307125 -0.93001682 28 0
9.0695763 9.5533371 -0.92995405 28 0
9.0660391 9.4916601 -0.93142051 28 0
9.0433416 9.4068832 -0.93039513 28 0
9.0264997 9.3300543 -0.93009359 28 0
9.0219135 9.2688131 -0.9313494 28 0
9.0106726 9.2000036 -0.93172055 28 0
8.9863186 9.1160383 -0.93036312 28 0
8.9807196 9.0552235 -0.93141538 28 0
8.9426947 8.956439 -0.92821819 28 0
8.9363708 8.8959637 -0.92912477 28 0
8.9153862 8.8216953 -0.92799735 28 0
8.9019279 8.7539463 -0.92792404 28 0
8.8946409 8.6938953 -0.9286375 28 0
8.8870497 8.6339741 -0.9292897 28 0
8.8660336 8.5591888 -0.92815191 28 0
8.8577976 8.4995632 -0.92867464 28 0
8.8360443 8.4251595 -0.92738932 28 0
8.8338022 8.3732662 -0.92866278 28 0
8.8313036 8.3214655 -0.92988467 28 0
8.8151999 8.2549763 -0.929281 28 0
8.8054562 8.1960335 -0.9295013 28 0
8.7954206 8.1372223 -0.92966306 28 0
8.7918329 8.0858803 -0.93066609 28 0
8.781229 8.0273285 -0.93071383 28 0
8.7771235 7.9762015 -0.93161267 28 0
8.7523355 7.9033804 -0.92972004 28 0
8.7613411 7.8669991 -0.9323439 28 0
8.7496157 7.8089719 -0.93216676 28 0
8.7513609 7.7654862 -0.93378639 28 0
8.7322035 7.7005272 -0.93257111 28 0
8.7196341 7.6429167 -0.93222469 28 0
8.7067776 7.5854564 -0.93182093 28 0
8.6936359 7.5281463 -0.93135995 28 0
8.6941891 7.4851594 -0.93274015 28 0
8.6945419 7.4422407 -0.93407995 28 0
8.6735983 7.3782549 -0.9325074 28 0
8.6664362 7.3285122 -0.93279308 28 0
8.6661158 7.2858768 -0.93399751 28 0
8.6786404 7.2584701 -0.93687636 28 0
8.6779757 7.2159295 -0.93801123 28 0
8.6771183 7.1734543 -0.93910748 28 0
8.7118683 7.1656046 -0.94507664 28 0
8.7394552 7.150712 -0.95006174 28 0
8.7814236 7.1494384 -0.95702285 28 0
8.8162308 7.1411166 -0.963 28 0
8.8582964 7.1394615 -0.96997786 28 0
8.8931532 7.1308074 -0.97596276 28 0
8.9498863 7.1423149 -0.9849714 28 0
8.9775276 7.1265273 -0.98996073 28 0
9.0198021 7.1240788 -0.9969753 28 0
9.0621271 7.1214285 -1.0039984 28 0
9.1045065 7.1185741 -1.0110312 28 0
9.1543293 7.1221724 -1.0191005 28 0
9.1968365 7.1188803 -1.0261561 28 0
9.2308331 7.1100783 -1.0319642 28 0
9.2745457 7.1051006 -1.0392528 28 0
9.3171797 7.1012177 -1.0463296 28 0
9.3673601 7.1036649 -1.0544633 28 0
9.4089851 7.1006775 -1.0613409 28 0
9.444252 7.0896645 -1.0673914 28 0
9.4946318 7.0914254 -1.0755605 28 0
9.5450926 7.0929346 -1.0837442 28 0
9.588048 7.0877671 -1.0908767 28 0
9.6158218 7.0695949 -1.0958749 28 0
9.590148 7.0066953 -1.093345 28 0
9.5641594 6.944026 -1.0907527 28 0
9.5378609 6.8815837 -1.0880988 28 0
9.4958744 6.8067703 -1.0832121 28 0
9.461215 6.7385554 -1.0793394 28 0
9.4107513 6.6581235 -1.0732113 28 0
9.3908558 6.6029782 -1.0713882 28 0
9.3551617 6.535614 -1.0673109 28 0
9.3347025 6.4808874 -1.0653759 28 0
9.3139753 6.4263515 -1.0633878 28 0
9.277339 6.3597484 -1.0591239 28 0
9.248209 6.2995391 -1.0559092 28 0
9.2109222 6.2334871 -1.0515167 28 0
9.2048168 6.1919465 -1.0515486 28 0
9.1669359 6.1263857 -1.0470386 28 0
9.144556 6.0731273 -1.0447228 28 0
9.1219196 6.0200639 -1.0423563 28 0
9.106986 5.9731483 -1.0410769 28 0
9.0749655 5.9158034 -1.0372939 28 0
9.0524893 5.8620605 -1.0349548 28 0
9.0208302 5.803916 -1.0312395 28 0
8.9969139 5.751873 -1.0286194 28 0
8.9807882 5.7058625 -1.0271038 28 0
8.9725113 5.6658058 -1.0267038 28 0
8.9551086 5.6213269 -1.0249392 28 0
8.930275 5.5699983 -1.0221372 28 0
8.9051943 5.5188761 -1.0192864 28 0
8.8880005 5.4736619 -1.0175587 28 0
8.8542995 5.4172525 -1.01344 28 0
8.8374834 5.3711724 -1.0117828 28 0
8.818799 5.3277183 -1.0097644 28 0
8.8007383 5.2831907 -1.0078651 28 0
8.7824745 5.238821 -1.0059254 28 0
8.7640038 5.1946168 -1.0039448 28 0
8.7453289 5.1505756 -1.0019237 28 0
8.7181787 5.1012058 -0.99866402 28 0
8.6907949 5.0520487 -0.99535817 28 0
8.6880865 5.019433 -0.99561971 28 0
8.6602812 4.9706383 -0.99223053 28 0
8.6489182 4.9328375 -0.99121785 28 0
8.6373901 4.8951473 -0.99017227 28 0
8.6173248 4.8522434 -0.98787606 28 0
8.6054487 4.8148165 -0.98676145 28 0
8.5850058 4.7722259 -0.98439044 28 0
8.5636492 4.730989 -0.98184347 28 0
8.5596905 4.6991954 -0.98185617 28 0
8.5302496 4.6518621 -0.97814441 28 0
8.5259867 4.6202779 -0.97809643 28 0
8.5131102 4.5836163 -0.97678328 28 0
8.5000715 4.5470757 -0.97543824 28 0
8.4783602 4.5055628 -0.97281665 28 0
8.4735203 4.4743581 -0.97265387 28 0
8.442914 4.4281054 -0.96871251 28 0
8.4298725 4.3909492 -0.96736187 28 0
8.41535 4.3562417 -0.96572781 28 0
8.4013338 4.3204961 -0.96418923 28 0
8.3871613 4.2848773 -0.96261966 28 0
8.3555889 4.2395768 -0.95848835 28 0
8.3583517 4.2140207 -0.95938861 28 0
8.3437166 4.1787844 -0.95772749 28 0
8.328928 4.1436763 -0.95603591 28 0
8.3139858 4.1086974 -0.95431423 28 0
8.2901955 4.0690813 -0.95128292 28 0
8.2836485 4.0391302 -0.95078111 28 0
8.2851095 4.0151029 -0.95142734 28 0
8.2608595 3.9759033 -0.94830531 28 0
8.2539396 3.946208 -0.94772953 28 0
8.2381315 3.9119594 -0.94583648 28 0
8.2221756 3.8778448 -0.94391435 28 0
8.2060719 3.843864 -0.94196302 28 0
8.1898212 3.8100181 -0.93998283 28 0
8.1822491 3.7808259 -0.93927777 28 0
8.1745605 3.7517138 -0.93854934 28 0
8.1579008 3.7182193 -0.93648839 28 0
8.1499643 3.6892962 -0.93571079 28 0
8.1419115 3.6604548 -0.93491018 28 0
8.1248484 3.6273167 -0.93276948 28 0
8.1165504 3.5986674 -0.93192035 28 0
8.1170588 3.5744226 -0.93237031 28 0
8.0996103 3.5416176 -0.93015361 28 0
8.0820217 3.5089529 -0.92790937 28 0
8.0732536 3.4806657 -0.92696702 28 0
8.0548992 3.4493501 -0.92457676 28 0
8.0458975 3.4212594 -0.9235881 28 0
8.0367832 3.3932543 -0.92257726 28 0
8.0365686 3.3694589 -0.92288309 28 0
8.0272436 3.3415976 -0.92183042 28 0
8.0087719 3.309756 -0.91941214 28 0
7.9901648 3.278059 -0.91696727 28 0
7.9986067 3.2585354 -0.91854078 28 0
7.9797678 3.2270432 -0.9160502 28 0
7.9880524 3.2075524 -0.91759187 28 0
7.9689832 3.1762662 -0.91505593 28 0
7.9588914 3.1490211 -0.91385132 28 0
7.9486923 3.121866 -0.91262543 28 0
7.9383855 3.0948012 -0.91137832 28 0
7.9371171 3.0716338 -0.91147399 28 0
7.926609 3.0447216 -0.91018695 28 0
7.9251637 3.0216501 -0.91024721 28 0
7.9052749 2.9911714 -0.90754998 28 0
7.9128337 2.9719169 -0.90894532 28 0
6.5883722 2.5535412 -0.89342272 28 0
6.5760889 2.5315347 -0.89109886 28 0
6.5822387 2.5163839 -0.89223808 28 0
6.5701385 2.4936688 -0.8899461 28 0
6.567059 2.4747941 -0.88934886 28 0
6.5639091 2.4559584 -0.88873762 28 0
6.5606899 2.4371619 -0.88811249 28 0
6.5665498 2.4220607 -0.88919282 28 0
6.5632038 2.4033146 -0.88854218 28 0
6.5689592 2.3882055 -0.88960111 28 0
6.5654864 2.3695104 -0.88892508 28 0
6.5616336 2.3516948 -0.88817811 28 0
6.5580273 2.3330803 -0.88747531 28 0
6.5635667 2.3179884 -0.88849032 28 0
6.5690589 2.3028784 -0.88949561 28 0
6.5652714 2.2843292 -0.88875628 28 0
6.5521698 2.262429 -0.88626623 28 0
6.5574918 2.2473562 -0.88723695 28 0
6.5535007 2.2289326 -0.88645715 28 0
6.5491552 2.2113883 -0.88561171 28 0
6.5450339 2.1930494 -0.88480586 28 0
6.5408468 2.1747537 -0.88398689 28 0
6.5458984 2.1597173 -0.88490283 28 0
6.5322723 2.1382918 -0.88230926 28 0
6.5468111 2.1256042 -0.88500363 28 0
6.5327702 2.1051316 -0.88233262 28 0
6.5469522 2.093219 -0.88496023 28 0
6.5330448 2.0720291 -0.88231099 28 0
6.5377803 2.0570185 -0.88316256 28 0
6.5330963 2.0389853 -0.88224423 28 0
6.5377302 2.0239747 -0.883075 28 0
6.5423183 2.0089495 -0.88389629 28 0
6.5468597 1.9939096 -0.88470799 28 0
6.5322881 1.9739137 -0.88193238 28 0
6.5461397 1.9617653 -0.88449067 28 0
6.5411091 1.9438845 -0.88350266 28 0
6.5454502 1.928849 -0.88427353 28 0
6.5403013 1.911031 -0.88326192 28 0
6.5445414 1.8959981 -0.8840121 28 0
6.5487351 1.8809522 -0.88475287 28 0
6.5339437 1.8605368 -0.88192916 28 0
6.5475059 1.8481721 -0.88442659 28 0
6.5420671 1.8304995 -0.88335687 28 0
6.5460591 1.8154618 -0.88405651 28 0
6.5405025 1.7978543 -0.88296336 28 0
6.5443945 1.7828218 -0.88364249 28 0
6.5482402 1.7677768 -0.88431203 28 0
6.5425143 1.7502542 -0.88318491 28 0
6.5462599 1.7352155 -0.88383412 28 0
6.5497541 1.7210014 -0.8844384 28 0
6.5438619 1.7035639 -0.88327807 28 0
6.5570178 1.6908665 -0.88569003 28 0
6.5510182 1.673467 -0.88450801 28 0
6.5449586 1.6561177 -0.88331407 28 0
6.5484142 1.6410718 -0.88390398 28 0
6.5420527 1.6246272 -0.88265544 28 0
6.5454106 1.6095906 -0.88322556 28 0
6.5391273 1.5923804 -0.88198698 28 0
6.5423861 1.5773537 -0.88253695 28 0
6.545599 1.5623165 -0.88307744 28 0
6.5487661 1.5472693 -0.88360846 28 0
6.5518866 1.532212 -0.88412994 28 0
6.5549603 1.5171448 -0.88464177 28 0
6.5387192 1.4981104 -0.88153273 28 0
6.5513287 1.4850339 -0.88383031 28 0
6.5446105 1.4680514 -0.88250476 28 0
6.5474873 1.4530081 -0.88297659 28 0
6.540504 1.4369347 -0.88160384 28 0
6.552948 1.4237311 -0.88386667 28 0
6.5460191 1.406866 -0.88249892 28 0
6.5390325 1.390054 -0.88111991 28 0
6.5416684 1.375029 -0.88154274 28 0
6.5442586 1.3599957 -0.88195616 28 0
6.546803 1.3449544 -0.8823601 28 0
6.5493007 1.3299048 -0.88275445 28 0
6.5517516 1.3148476 -0.88313931 28 0
6.5541568 1.2997825 -0.88351464 28 0
6.5466752 1.2839981 -0.88204247 28 0
6.5489855 1.2689497 -0.88239855 28 0
6.551249 1.2538939 -0.88274509 28 0
6.5437417 1.2373745 -0.881262 28 0
6.5556374 1.223761 -0.88340968 28 0
6.5480285 1.2072902 -0.88190621 28 0
6.5501018 1.1922377 -0.88221401 28 0
6.542388 1.1758473 -0.88068968 28 0
6.5541105 1.162114 -0.88280112 28 0
6.5462961 1.1457732 -0.88125664 28 0
6.5480771 1.1315631 -0.88151121 28 0
6.5596747 1.1177201 -0.8835963 28 0
6.551712 1.1014535 -0.88202214 28 0
6.553556 1.0855534 -0.88227654 28 0
6.5552549 1.0704848 -0.88250774 28 0
6.5569081 1.0554106 -0.88272947 28 0
6.5584264 1.041169 -0.8829301 28 0
6.5599885 1.0260849 -0.88313329 28 0
6.5614219 1.0118345 -0.88331652 28 0
6.5629745 0.99590236 -0.88351119 28 0
6.5643978 0.98080403 -0.88368577 28 0
6.5657744 0.96570164 -0.88385093 28 0
6.5573115 0.94972932 -0.882177 28 0
6.5683885 0.93548381 -0.88415265 28 0
6.5597596 0.92040402 -0.88245165 28 0
6.5609508 0.90531677 -0.88257897 28 0
6.5620947 0.89022571 -0.88269669 28 0
6.5631928 0.87513113 -0.88280499 28 0
6.5642443 0.86003357 -0.88290375 28 0
6.565249 0.84493244 -0.88299298 28 0
6.5662079 0.82982814 -0.88307273 28 0
6.5671196 0.81472111 -0.88314289 28 0
6.5679851 0.79961139 -0.88320369 28 0
6.5688043 0.78449887 -0.88325483 28 0
6.5695348 0.77022374 -0.88329446 28 0
6.5702634 0.75510657 -0.88332713 28 0
6.5709453 0.73998731 -0.88335031 28 0
6.5715809 0.72486597 -0.88336396 28 0
6.5819941 0.71010983 -0.88520014 28 0
6.5727119 0.69461739 -0.88336271 28 0
6.5732079 0.67949086 -0.88334775 28 0
6.5638304 0.66408986 -0.88149148 28 0
6.5838876 0.64947534 -0.88512141 28 0
6.5744157 0.63410288 -0.88324594 28 0
6.5747089 0.61981231 -0.88319618 28 0
6.565145 0.60453063 -0.88130271 28 0
6.5751939 0.58954692 -0.88306278 28 0
6.5655355 0.57432705 -0.8811506 28 0
6.5754919 0.55927962 -0.8828913 28 0
6.5755711 0.54414546 -0.88279128 28 0
6.5756035 0.52901089 -0.88268173 28 0
6.5755897 0.51387662 -0.8825627 28 0
6.5755291 0.49874264 -0.88243419 28 0
6.5754218 0.48360908 -0.88229614 28 0
6.5850987 0.46834251 -0.88397813 28 0
6.5848975 0.45317847 -0.88382071 28 0
6.5748358 0.43905205 -0.88183451 28 0
6.5745449 0.42392117 -0.88165891 28 0
6.5840359 0.40853411 -0.88330203 28 0
6.5836511 0.393374 -0.88310713 28 0
6.5733924 0.37853536 -0.88107526 28 0
6.5827413 0.36305836 -0.8826887 28 0
6.5822163 0.34790263 -0.88246518 28 0
6.5914679 0.33233488 -0.884058 28 0
6.5810623 0.31843948 -0.88200343 28 0
6.5804005 0.3032898 -0.88175195 28 0
6.5797319 0.28898418 -0.88150573 28 0
6.5887098 0.2716167 -0.88302886 28 0
6.5879498 0.25728577 -0.88276368 28 0
6.5870991 0.24211478 -0.88247365 28 0
6.5862021 0.22694658 -0.88217402 28 0
6.5950685 0.21111828 -0.8836863 28 0
6.5940762 0.19592525 -0.88336706 28 0
6.5832305 0.18146144 -0.88121825 28 0
6.5920124 0.16639224 -0.88271898 28 0
6.5908818 0.15120929 -0.88237172 28 0
6.589705 0.13603012 -0.88201493 28 0
6.5884814 0.1208546 -0.88164866 28 0
6.5970049 0.10480279 -0.88308918 28 0
6.5956855 0.089604549 -0.88270313 28 0
6.5943184 0.074410595 -0.88230747 28 0
6.5929055 0.059221279 -0.88190234 28 0
6.6012282 0.043030575 -0.88330078 28 0
6.5997181 0.027819443 -0.88287574 28 0
6.5981612 0.012613158 -0.88244122 28 0
6.5965576 -0.0025876628 -0.88199717 28 0
6.6145401 -0.019197555 -0.88518804 28 0
6.6030717 -0.03329014 -0.88291502 28 0
6.6110902 -0.049697921 -0.88424963 28 0
6.599535 -0.063716784 -0.88195944 28 0
6.6074524 -0.080175363 -0.88327301 28 0
6.5958114 -0.094120026 -0.88096583 28 0
6.6036272 -0.11062846 -0.8822583 28 0
6.601644 -0.12584557 -0.8817367 28 0
6.5996141 -0.14105615 -0.8812055 28 0
6.5975375 -0.15626018 -0.88066489 28 0
6.6052642 -0.17205183 -0.88194472 28 0
6.6030922 -0.18727364 -0.88138443 28 0
6.600873 -0.20248805 -0.88081461 28 0
6.6180429 -0.22075953 -0.88382685 28 0
6.6060081 -0.23445839 -0.88144112 28 0
6.6133518 -0.25127584 -0.88263494 28 0
6.6109357 -0.26652244 -0.88202471 28 0
6.6181707 -0.28341722 -0.8831957 28 0
6.6156559 -0.29867893 -0.88256514 28 0
6.6130943 -0.31393197 -0.88192505 28 0
6.6008034 -0.32742798 -0.87948859 28 0
6.6078296 -0.34441352 -0.88061631 28 0
6.6149502 -0.36060494 -0.88176936 28 0
6.6023774 -0.37486035 -0.87926948 28 0
6.6189017 -0.39381558 -0.88214481 28 0
6.6160469 -0.40907812 -0.88144481 28 0
6.6229572 -0.42541683 -0.8825537 28 0
6.600719 -0.43676543 -0.87827939 28 0
6.6075363 -0.45311749 -0.87936926 28 0
6.6041589 -0.4700343 -0.87854987 28 0
6.6204915 -0.48851502 -0.88138968 28 0
6.6173453 -0.50378174 -0.88063014 28 0
6.614152 -0.51903802 -0.87986118 28 0
6.6109118 -0.53428388 -0.87908268 28 0
6.6172237 -0.55169779 -0.88006121 28 0
6.613883 -0.56695342 -0.87926203 28 0
6.6104951 -0.58219773 -0.87845343 28 0
6.6166387 -0.59970152 -0.87939692 28 0
6.6131501 -0.61495429 -0.8785677 28 0
6.6096148 -0.6301958 -0.87772894 28 0
6.6060324 -0.64542609 -0.87688065 28 0
6.6119533 -0.66303688 -0.87777787 28 0
6.6084757 -0.67742813 -0.87695742 28 0
6.6047478 -0.69265395 -0.87607956 28 0
6.6105008 -0.71034998 -0.8769418 28 0
6.6161919 -0.72809416 -0.87779117 28 0
6.6123085 -0.74334395 -0.87688124 28 0
6.6178823 -0.76115465 -0.87770605 28 0
6.6138968 -0.77640951 -0.87677526 28 0
6.6193528 -0.79428542 -0.87757564 28 0
6.6152654 -0.80954474 -0.87662405 28 0
6.6111312 -0.82479078 -0.87566298 28 0
6.6258774 -0.84547257 -0.87816203 28 0
6.6216326 -0.86075217 -0.87717813 28 0
6.6267872 -0.87880278 -0.87791556 28 0
6.6318784 -0.89689994 -0.87863964 28 0
6.6277213 -0.9113481 -0.87768 28 0
6.6232729 -0.92663258 -0.87665462 28 0
6.628191 -0.94480646 -0.8773427 28 0
6.6236401 -0.96009207 -0.87629634 28 0
6.628437 -0.97832674 -0.87695932 28 0
6.6237831 -0.99361265 -0.87589186 28 0
6.628458 -1.0119072 -0.87652951 28 0
6.6330681 -1.0302465 -0.87715352 28 0
6.6282544 -1.0455465 -0.87605333 28 0
6.6233935 -1.0608306 -0.87494367 28 0
6.6278238 -1.0792427 -0.87553042 28 0
6.622859 -1.0945252 -0.8743996 28 0
6.6274471 -1.1121455 -0.87502456 28 0
6.6223812 -1.1274264 -0.87387305 28 0
6.6265678 -1.1459516 -0.8744092 28 0
6.6306877 -1.1645199 -0.87493145 28 0
6.6254606 -1.1798102 -0.87374699 28 0
6.629456 -1.1984335 -0.87424332 28 0
6.6333833 -1.217099 -0.87472546 28 0
6.6372433 -1.2358062 -0.87519354 28 0
6.6317968 -1.2511169 -0.87396407 28 0
6.6447582 -1.2733455 -0.87608689 28 0
6.6299791 -1.2851824 -0.87315518 28 0
6.6427927 -1.3075222 -0.87524688 28 0
6.6371255 -1.3228495 -0.87397224 28 0
6.6497793 -1.3453292 -0.87603033 28 0
6.6531696 -1.3642932 -0.87640047 28 0
6.6564894 -1.3832968 -0.87675601 28 0
6.641438 -1.3949934 -0.87376982 28 0
6.6446404 -1.4140173 -0.87410128 28 0
6.6477737 -1.4330807 -0.87441826 28 0
6.6508365 -1.4521828 -0.87472051 28 0
6.6447239 -1.4675339 -0.87335479 28 0
6.6476579 -1.4866841 -0.87363034 28 0
6.6508679 -1.5050191 -0.8739686 28 0
6.6445928 -1.5203692 -0.87256968 28 0
6.6382699 -1.5356995 -0.87116122 28 0
6.6409469 -1.5549419 -0.87138367 28 0
6.6345181 -1.57026 -0.86995363 28 0
6.6280417 -1.5855571 -0.868514 28 0
6.6489139 -1.6120391 -0.87204283 28 0
6.6423092 -1.6273817 -0.87057668 28 0
6.6626153 -1.6549282 -0.87398165 28 0
6.6558781 -1.6703142 -0.8724882 28 0
6.6670156 -1.6939436 -0.87422782 28 0
6.6597757 -1.7101977 -0.87262511 28 0
6.6618032 -1.7297649 -0.87271243 28 0
6.6637578 -1.7493671 -0.87278461 28 0
6.6567307 -1.7647545 -0.87123185 28 0
6.6674466 -1.7886733 -0.87288326 28 0
6.660696 -1.803218 -0.8713935 28 0
6.6623731 -1.8229275 -0.87140822 28 0
6.6639752 -1.8426698 -0.87140733 28 0
6.6743464 -1.8668337 -0.8729865 28 0
6.6581278 -1.8778378 -0.86976737 28 0
6.6683369 -1.9020951 -0.87131262 28 0
6.6784434 -1.9264411 -0.87283635 28 0
6.6708708 -1.9418737 -0.87117189 28 0
6.6632509 -1.9572817 -0.86949801 28 0
6.6731043 -1.9817784 -0.87096888 28 0
6.6741076 -2.0017776 -0.87084383 28 0
6.6837683 -2.0264206 -0.87227416 28 0
6.6671696 -2.0372281 -0.86897892 28 0
6.6679597 -2.0572913 -0.86880988 28 0
6.6778097 -2.0812223 -0.87028432 28 0
6.6784368 -2.101373 -0.87008131 28 0
6.6789865 -2.1215522 -0.86986238 28 0
6.6794605 -2.1417613 -0.86962759 28 0
6.6798568 -2.1619987 -0.86937684 28 0
6.6797132 -2.1831229 -0.86900902 28 0
6.6804185 -2.202559 -0.86882746 28 0
6.6805835 -2.2228811 -0.86852878 28 0
6.6892428 -2.2481456 -0.86975002 28 0
6.6806798 -2.263608 -0.86788315 28 0
6.6891537 -2.2889807 -0.86906564 28 0
6.6804652 -2.3044422 -0.86717314 28 0
6.6802402 -2.3248997 -0.86679387 28 0
6.6799364 -2.3453825 -0.86639827 28 0
6.6795549 -2.3658917 -0.86598659 28 0
6.6875587 -2.3915312 -0.86707109 28 0
6.6785545 -2.4069858 -0.86511415 28 0
6.6779356 -2.4275703 -0.86465347 28 0
6.6856546 -2.4533653 -0.86567867 28 0
6.6848617 -2.4740257 -0.86518174 28 0
6.6839881 -2.4947095 -0.86466831 28 0
6.6914043 -2.5206835 -0.86563033 28 0
6.6903553 -2.5414412 -0.86508048 28 0
6.6975632 -2.5675411 -0.86599886 28 0
6.6880169 -2.5830255 -0.86393118 28 0
6.7033339 -2.6145957 -0.86628681 28 0
6.7024708 -2.6346345 -0.86578041 28 0
6.7092614 -2.6609812 -0.86661172 28 0
6.699975 -2.6756394 -0.86460346 28 0
6.7060218 -2.7029421 -0.86527562 28 0
6.7125015 -2.7294564 -0.8660422 28 0
6.7188654 -2.7560434 -0.86678457 28 0
6.7251129 -2.7827027 -0.86750275 28 0
6.7230749 -2.8038528 -0.86674792 28 0
6.7291069 -2.8306293 -0.86742121 28 0
6.7268858 -2.8518431 -0.86662859 28 0
6.7408204 -2.8843932 -0.86869437 28 0
6.7383995 -2.9056954 -0.86786026 28 0
6.7358956 -2.9270153 -0.86700916 28 0
6.7171769 -2.9368796 -0.86328828 28 0
6.6984458 -2.9466579 -0.85956556 28 0
6.663641 -2.9447749 -0.85300362 28 0
6.6208835 -2.9368901 -0.8450405 28 0
6.5862164 -2.9346063 -0.8385098 28 0
6.55161 -2.9321349 -0.83199281 28 0
6.5250244 -2.9353666 -0.82689321 28 0
6.4911156 -2.9317226 -0.82052767 28 0
6.4646015 -2.9346623 -0.81544501 28 0
6.4302106 -2.9315026 -0.80897725 28 0
6.395884 -2.9281576 -0.80252415 28 0
6.3616233 -2.9246275 -0.79608595 28 0
6.3352785 -2.9269519 -0.79104251 28 0
6.3089643 -2.9291427 -0.78600621 28 0
6.2748675 -2.9251091 -0.77960533 28 0
6.2408395 -2.9208922 -0.77321988 28 0
6.206881 -2.916492 -0.76685005 28 0
6.1729927 -2.9119093 -0.76049596 28 0
6.1469131 -2.9133329 -0.75551343 28 0
6.1131492 -2.9084103 -0.74918729 28 0
6.0948548 -2.9157825 -0.74557233 28 0
6.0611982 -2.9105463 -0.73927045 28 0
6.0276151 -2.905129 -0.73298508 28 0
6.0023355 -2.9051056 -0.72817707 28 0
5.984128 -2.9120269 -0.72458321 28 0
5.9583154 -2.9125073 -0.71966255 28 0
5.9401236 -2.9192388 -0.71607333 28 0
5.9294953 -2.9322953 -0.71380329 28 0
5.9112821 -2.9388864 -0.7102108 28 0
5.9156423 -2.9647608 -0.71054959 28 0
5.9048734 -2.9777384 -0.70825154 28 0
5.9090338 -3.0036871 -0.70854902 28 0
5.9056101 -3.0231695 -0.70752412 28 0
5.8946614 -3.036114 -0.70518959 28 0
5.8836732 -3.0490232 -0.70284718 28 0
5.8800488 -3.0684948 -0.70178151 28 0
5.8615775 -3.0747349 -0.69813901 28 0
5.8651972 -3.1008275 -0.69832492 28 0
5.8686953 -3.1269779 -0.69848567 28 0
5.8647494 -3.1464944 -0.69735402 28 0
5.8534212 -3.1593058 -0.69494295 28 0
5.8638968 -3.1922956 -0.69629925 28 0
5.8596878 -3.2118649 -0.69511342 28 0
5.8626375 -3.2382288 -0.69516057 28 0
5.8582454 -3.2578392 -0.693937 28 0
5.854423 -3.2767479 -0.69283515 28 0
5.8498712 -3.296376 -0.69157892 28 0
5.8452387 -3.3160126 -0.69030607 28 0
5.8405237 -3.3356566 -0.6890164 28 0
5.8357277 -3.3553081 -0.68771005 28 0
5.8450356 -3.3888524 -0.68882376 28 0
5.8471045 -3.4155278 -0.68868864 28 0
5.8349481 -3.4282784 -0.68610901 28 0
5.8297815 -3.4480009 -0.68472648 28 0
5.8455534 -3.488827 -0.6869275 28 0
5.8331714 -3.5015714 -0.68430191 28 0
5.8277135 -3.5213532 -0.68285948 28 0
5.8221731 -3.5411396 -0.68140024 28 0
5.8303905 -3.5751734 -0.68228745 28 0
5.8246408 -3.595011 -0.680785 28 0
5.8188076 -3.6148522 -0.67926556 28 0
5.819746 -3.6418836 -0.67889684 28 0
5.8205566 -3.668961 -0.67850178 28 0
5.8151507 -3.6881497 -0.67707455 28 0
5.8157325 -3.715296 -0.67663229 28 0
5.8229523 -3.7497599 -0.67731261 28 0
5.8165107 -3.7697217 -0.675668 28 0
5.8099856 -3.7896843 -0.67400628 28 0
5.8033762 -3.8096466 -0.6723274 28 0
5.8100362 -3.8443265 -0.67289174 28 0
5.8032136 -3.864331 -0.67116898 28 0
5.8095684 -3.8991361 -0.67167014 28 0
5.8025317 -3.9191802 -0.66990334 28 0
5.8093472 -3.9534059 -0.67050296 28 0
5.8020988 -3.9734888 -0.66869271 28 0
5.7947655 -3.9935691 -0.66686511 28 0
5.7930875 -4.0218501 -0.66595274 28 0
5.7985444 -4.0569963 -0.66626799 28 0
5.8038239 -4.0922213 -0.66654634 28 0
5.8024778 -4.119956 -0.66570598 28 0
5.7945766 -4.1401396 -0.66376168 28 0
5.7993908 -4.1755347 -0.66394365 28 0
5.7912712 -4.1957479 -0.66195458 28 0
5.7894197 -4.2236037 -0.66101003 28 0
5.7937651 -4.2591634 -0.66109514 28 0
5.7979298 -4.294796 -0.66114283 28 0
5.7956319 -4.3227921 -0.66010606 28 0
5.8002944 -4.3578496 -0.66025984 28 0
5.7977095 -4.3859296 -0.65916389 28 0
5.8012033 -4.4218082 -0.65907264 28 0
5.7912874 -4.4428806 -0.65671021 28 0
5.7821317 -4.4632425 -0.65450835 28 0
5.7913065 -4.5070786 -0.65533954 28 0
5.7950025 -4.5424743 -0.65529335 28 0
5.7915611 -4.5707693 -0.65402091 28 0
5.7879844 -4.599092 -0.65272063 28 0
5.7842717 -4.6274405 -0.6513924 28 0
5.7864432 -4.6637397 -0.65102798 28 0
5.7875347 -4.7007995 -0.6504373 28 0
5.7833605 -4.7292624 -0.64901388 28 0
5.7790494 -4.7577481 -0.6475625 28 0
5.7746015 -4.7862577 -0.64608288 28 0
5.7700162 -4.8147902 -0.64457506 28 0
5.7720838 -4.8506889 -0.64419258 28 0
5.7730522 -4.8873415 -0.64357978 28 0
5.7738323 -4.9240508 -0.6429283 28 0
5.7686276 -4.9527249 -0.64129287 28 0
5.7748308 -4.9976411 -0.64150918 28 0
5.7635522 -5.0182614 -0.63887197 28 0
5.7521844 -5.0388632 -0.6362167 28 0
5.7578216 -5.0839438 -0.63631612 28 0
5.7575474 -5.1209307 -0.63544708 28 0
5.7514358 -5.1497679 -0.63362539 28 0
5.7517838 -5.1861496 -0.63288808 28 0
5.7509718 -5.2232723 -0.63190836 28 0
5.749969 -5.2604461 -0.6308893 28 0
5.7487755 -5.2976685 -0.62983078 28 0
5.7473912 -5.3349395 -0.6287331 28 0
5.7448063 -5.3729477 -0.62738448 28 0
5.7375631 -5.4019866 -0.62533015 28 0
5.7410669 -5.4477224 -0.62498903 28 0
5.7389088 -5.4851775 -0.62373191 28 0
5.7311664 -5.5142989 -0.621575 28 0
5.7296886 -5.551137 -0.62046152 28 0
5.7269845 -5.5887046 -0.61909211 28 0
5.7294035 -5.6347408 -0.61852711 28 0
5.7209959 -5.6639628 -0.61623371 28 0
5.7229753 -5.7101135 -0.61557817 28 0
5.7194705 -5.7478585 -0.61404383 28 0
5.720983 -5.7941356 -0.61329198 28 0
5.7118764 -5.8234611 -0.61085504 28 0
5.7181067 -5.8783717 -0.61082375 28 0
5.7086358 -5.9077516 -0.60831201 28 0
5.7092366 -5.9542532 -0.60737228 28 0
5.6841836 -5.9579391 -0.60240579 28 0
5.6591463 -5.9615297 -0.5974431 28 0
5.6391521 -5.9736319 -0.59326833 28 0
5.6291237 -6.0029182 -0.59064358 28 0
5.6239271 -6.0408435 -0.58876252 28 0
5.6333809 -6.1047659 -0.58914369 28 0
5.6424766 -6.1688123 -0.58945096 28 0
5.6267395 -6.1895442 -0.58590269 28 0
5.6011748 -6.1928353 -0.58083469 28 0
5.5864625 -6.2128048 -0.57750148 28 0
5.5753274 -6.2421346 -0.57465041 28 0
5.5592589 -6.262711 -0.57103568 28 0
5.5431008 -6.2832499 -0.56740296 28 0
5.555264 -6.3564205 -0.56809008 28 0
5.5858469 -6.4649043 -0.57156098 28 0
5.5783472 -6.5031862 -0.56920701 28 0
5.5799565 -6.5591326 -0.56822437 28 0
5.5997663 -6.650506 -0.56998003 28 0
5.5500517 -6.6092925 -0.56120521 28 0
5.5326366 -6.6299 -0.55731529 28 0
5.4514956 -6.5261302 -0.54383934 28 0
5.4387994 -6.5553474 -0.54067039 28 0
5.430449 -6.593462 -0.53814399 28 0
5.5200877 -6.8279176 -0.55023551 28 0
5.5506549 -6.946815 -0.55344695 28 0
5.5717087 -7.04807 -0.55520439 28 0
5.561512 -7.0867701 -0.55229658 28 0
5.5598187 -7.1434369 -0.55063415 28 0
5.544836 -7.1731844 -0.54699445 28 0
5.5426006 -7.2299342 -0.54522067 28 0
5.5315113 -7.2687011 -0.54213011 28 0
5.5202188 -7.3074713 -0.53899819 28 0
5.5045104 -7.3371987 -0.53521037 28 0
5.4886537 -7.3669 -0.53139251 28 0
5.480968 -7.4147277 -0.52875096 28 0
5.4730225 -7.4625802 -0.52605611 28 0
5.4853315 -7.5559607 -0.52626503 28 0
5.480803 -7.6130419 -0.52402067 28 0
5.4719114 -7.661046 -0.52113152 28 0
5.4641666 -7.7084341 -0.51848131 28 0
5.4148436 -7.6649723 -0.50980359 28 0
4.660274 -5.99015 -0.40106142 28 0
4.640192 -5.999054 -0.39689329 28 0
4.6161752 -5.9987049 -0.3921693 28 0
4.5921888 -5.9982662 -0.38745213 28 0
4.5682311 -5.9977388 -0.38274154 28 0
4.5443039 -5.9971232 -0.37803775 28 0
4.5204062 -5.996418 -0.37334082 28 0
4.4954233 -5.9960923 -0.36841941 28 0
4.4764409 -6.004005 -0.36448336 28 0
4.4674416 -6.0401387 -0.36183974 28 0
4.4582458 -6.0762782 -0.35915589 28 0
4.4598069 -6.1403108 -0.35792497 28 0
4.4537535 -6.185801 -0.3556346 28 0
4.4438515 -6.2219973 -0.35280618 28 0
4.4408827 -6.2768559 -0.35089728 28 0
4.4411383 -6.3411021 -0.3493982 28 0
4.4304996 -6.3773561 -0.34641895 28 0
5.2263451 -8.6716938 -0.4484275 28 0
5.1945863 -8.6729717 -0.44211048 28 0
5.1628528 -8.6741362 -0.43579936 28 0
5.131144 -8.675189 -0.42949429 28 0
5.0927916 -8.6572933 -0.42233104 28 0
5.0512762 -8.6298161 -0.41477185 28 0
5.0165148 -8.6210423 -0.4080953 28 0
4.9948282 -8.6499319 -0.40309352 28 0
4.9697762 -8.6693125 -0.397654 28 0
4.947825 -8.6980925 -0.39259902 28 0
4.9383683 -8.7647381 -0.38909879 28 0
4.9128757 -8.7839661 -0.38357046 28 0
4.8872948 -8.8031225 -0.3780247 28 0
4.8585529 -8.8126974 -0.37208351 28 0
4.8389111 -8.8507347 -0.36725253 28 0
4.8160505 -8.8792086 -0.36201426 28 0
4.7900586 -8.8980904 -0.35638669 28 0
4.7403378 -8.8405247 -0.3479124 28 0
4.751143 -8.9733467 -0.3468062 28 0
4.7131824 -8.9537868 -0.33973569 28 0
4.6696334 -8.9149323 -0.33202511 28 0
3.7490444 -5.914803 -0.22248842 0 0
3.7207656 -5.892015 -0.21741921 0 0
3.6998863 -5.8982382 -0.21310893 0 0
3.6718404 -5.8752389 -0.20808893 0 0
3.6521127 -5.8809805 -0.20401739 0 0
3.6323669 -5.8866577 -0.19994269 0 0
3.6126039 -5.892272 -0.19586493 0 0
3.5912912 -5.8878732 -0.191724 0 0
3.5715241 -5.8933558 -0.18764648 0 0
3.5491679 -5.8891153 -0.18329129 0 0
3.5243113 -5.8751278 -0.17867683 0 0
3.5045836 -5.8803964 -0.17460896 0 0
3.4922903 -5.9146519 -0.17130727 0 0
3.4969769 -6.0167274 -0.169717 0 0
3.4937799 -6.089797 -0.16726901 0 0
3.4877548 -6.1532006 -0.16449417 0 0
3.480202 -6.2169156 -0.16140507 0 0
3.474581 -6.2800798 -0.15871461 0 0
3.4674318 -6.3435512 -0.15570979 0 0
5.5593767 -15.618953 -0.3438763 0 0
5.5650101 -15.874282 -0.33865774 0 0
5.560369 -16.090773 -0.33234507 0 0
5.569509 -16.375729 -0.32708594 0 0
5.5684347 -16.621817 -0.32074514 0 0
5.5889149 -16.975597 -0.31603834 0 0
4.1232452 -10.295541 -0.18871944 28 0
5.5848022 -17.498003 -0.30219486 0 0
5.5753779 -17.73494 -0.29439607 0 0
4.0191007 -10.286724 -0.16805485 28 0
5.5690808 -18.277143 -0.27960196 0 0
3.5790601 -8.3864202 -0.127195 0 0
3.5572557 -8.4212723 -0.12194701 0 0
5.5597844 -19.521725 -0.24663596 0 0
2.5596116 -3.4200437 -0.04660457 0 0
2.543915 -3.4025862 -0.043886818 0 0
2.5439327 -3.473701 -0.042110104 0 0
2.5298955 -3.4660246 -0.039479636 0 0
2.5142393 -3.4484394 -0.036771107 0 0
2.4986982 -3.4307938 -0.034086492 0 0
2.484884 -3.4229577 -0.031502794 0 0
2.4727058 -3.4249461 -0.029001344 0 0
2.4605215 -3.4268956 -0.026498919 0 0
2.4483314 -3.4288063 -0.023995608 0 0
2.4376254 -3.4405656 -0.021543387 0 0
2.4239333 -3.4325097 -0.018986275 0 0
2.4117255 -3.4343028 -0.016480319 0 0
2.4023106 -3.4558599 -0.014040035 0 0
2.3872941 -3.4377716 -0.011465955 0 0
2.3764083 -3.4493573 -0.0089783436 0 0
2.3641489 -3.4509976 -0.0064629531 0 0
2.3531613 -3.4625168 -0.0039550718 0 0
2.340862 -3.4640822 -0.0014321087 0 0
2.3297732 -3.4755344 0.0010959393 0 0
2.3186185 -3.4869542 0.0036372102 0 0
2.308553 -3.5082748 0.0062084659 0 0
2.2983603 -3.5295696 0.0088054426 0 0
2.2891347 -3.5607784 0.011457472 0 0
2.2825558 -3.611778 0.014073833 0 0
2.8016903 -9.3184013 0.052944567 0 0
2.6630118 -8.1764202 0.052209835 0 0
2.6301606 -8.1292238 0.057672448 0 0
2.6043727 -8.1415415 0.063207962 0 0
