# .PCD v0.7 - Point Cloud Data file format
VERSION 0.7
FIELDS x y z label object
SIZE 4 4 4 4 4
TYPE F F F I I
COUNT 1 1 1 1 1
WIDTH 1278
HEIGHT 1
VIEWPOINT 0 0 0 1 0 0 0
POINTS 1278
DATA ascii
-0.12948953 32.973248 0.72542942 0 0
-0.024475988 32.889774 0.70304447 0 0
0.077284932 32.855862 0.68182468 0 0
0.1788173 32.821613 0.66065419 0 0
0.28062168 32.777046 0.6393311 0 0
0.37895516 32.802063 0.61941677 0 0
0.47279638 32.936646 0.60151833 0 0
0.57174367 32.961048 0.58148348 0 0
0.67731792 32.805283 0.55830449 0 0
0.77729928 32.789062 0.53766489 0 0
0.87165266 32.772339 0.51817828 0 0
0.63351464 45.309444 0.69169629 0 0
0.77203882 45.283382 0.66308743 0 0
0.90935063 45.306854 0.63522756 0 0
1.266493 32.902977 0.43868434 0 0
1.367011 32.844864 0.41755149 0 0
1.4670328 32.796429 0.39662194 0 0
1.5666674 32.757668 0.37587351 0 0
1.6661671 32.698589 0.35495594 0 0
1.7652086 32.679184 0.33453271 0 0
1.8641613 32.679462 0.31432924 0 0
1.9636014 32.809414 0.29532331 0 0
2.0575664 32.829086 0.27634194 0 0
2.2788289 45.197433 0.35437018 0 0
2.416162 45.186085 0.32624418 0 0
2.5534303 45.174297 0.29813486 0 0
2.6906304 45.162067 0.27004272 0 0
2.8280084 45.159393 0.24201728 0 0
2.9653552 45.156281 0.21400166 0 0
2.7524374 32.787796 0.13427085 0 0
2.8507652 32.754925 0.11392035 0 0
2.5739081 21.848249 0.061768349 0 0
2.63362 21.786098 0.048997097 0 0
3.1370828 32.604698 0.054152474 0 0
3.2344995 32.570606 0.033997387 0 0
3.3404558 32.605877 0.012800899 0 0
3.4446492 32.710968 -0.0073371958 0 0
4.1977439 45.048538 -0.037823495 0 0
4.3271527 45.041462 -0.064188182 0 0
4.4647231 45.04353 -0.092112824 0 0
4.6010947 45.025185 -0.11998896 0 0
4.7380252 45.016392 -0.14787601 0 0
4.8749561 45.007153 -0.17575976 0 0
5.0132565 45.017426 -0.20372009 0 0
4.231699 32.671623 -0.16753632 0 0
4.3259721 32.604176 -0.18732265 0 0
4.4222822 32.566338 -0.20722312 0 0
4.5183663 32.528206 -0.22707517 0 0
4.614243 32.489773 -0.2468825 0 0
4.7152834 32.510796 -0.26714239 0 0
4.8137169 32.501614 -0.28716728 0 0
4.9101915 32.472214 -0.30698982 0 0
5.0000668 32.433109 -0.3255668 0 0
5.0972438 32.413067 -0.34542814 0 0
5.1922193 32.372833 -0.36503768 0 0
5.2923675 32.382008 -0.38520089 0 0
5.3981476 32.440544 -0.40601096 0 0
5.4838357 32.319897 -0.42451796 0 0
5.5758166 32.258602 -0.44370729 0 0
5.6794596 32.296299 -0.46427375 0 0
5.7772164 32.284031 -0.48413679 28 0
5.8749518 32.271446 -0.50399309 28 0
5.9581704 32.189869 -0.52159053 28 0
6.0080547 31.819912 -0.53528309 28 0
6.0921998 31.717426 -0.55326188 28 0
6.1743574 31.604811 -0.57093346 28 0
6.2417431 31.392994 -0.5865913 28 0
6.3064241 31.171158 -0.60179651 28 0
6.3403373 30.751432 -0.6127283 28 0
6.3882327 30.440519 -0.62540996 28 0
6.4449964 30.198751 -0.63919842 28 0
6.498754 29.947041 -0.65247327 28 0
6.5127316 29.458406 -0.66004062 28 0
6.5855184 29.34482 -0.67579174 28 0
6.6477051 29.171896 -0.68998134 28 0
6.7004423 28.949589 -0.7027446 28 0
6.7312655 28.609043 -0.71224254 28 0
6.7303643 28.101248 -0.71697807 28 0
6.7785411 27.909403 -0.72851497 28 0
6.801414 27.559317 -0.73649305 28 0
6.8166881 27.179873 -0.74322337 28 0
6.8427229 26.869341 -0.75144511 28 0
6.9124007 26.794453 -0.76615316 28 0
6.9874458 26.7488 -0.78165239 28 0
7.0192304 26.487276 -0.79054242 28 0
3.4198077 8.3286209 -0.24291992 0 0
3.41224 8.1769981 -0.24285626 0 0
3.4459965 8.2208824 -0.24920282 0 0
3.4779594 8.2548485 -0.25528347 0 0
3.4954085 8.220295 -0.25910953 0 0
3.514797 8.1954679 -0.26322979 0 0
3.5427151 8.2096195 -0.26868525 0 0
3.564146 8.1944189 -0.27312011 0 0
3.5899518 8.1986418 -0.27824444 0 0
3.6135442 8.1930399 -0.2830179 0 0
3.6439805 8.2165461 -0.28888294 0 0
3.6709414 8.2305374 -0.29414171 0 0
3.7040071 8.2635326 -0.30044004 0 0
3.7335975 8.2870188 -0.30613217 0 0
6.7854505 20.233625 -0.80326504 28 0
6.7352381 19.782038 -0.79748315 28 0
6.7172055 19.466421 -0.79684585 28 0
6.7048378 19.180117 -0.79706091 28 0
6.6473613 18.729862 -0.78980637 28 0
6.6827068 18.637264 -0.79772222 28 0
6.6622486 18.352606 -0.79629821 28 0
6.67485 18.183006 -0.80039054 28 0
6.659759 17.917234 -0.79985458 28 0
6.6646829 17.728674 -0.80258667 28 0
6.6630278 17.521038 -0.80418175 28 0
6.6960015 17.438395 -0.81151342 28 0
6.6699648 17.15427 -0.80895478 28 0
6.6901355 17.033394 -0.81408459 28 0
6.6725883 16.788088 -0.81285161 28 0
6.6219382 16.437841 -0.80599487 28 0
6.6360149 16.307863 -0.80998713 28 0
6.62293 16.092031 -0.80936235 28 0
6.6085553 15.87644 -0.80847609 28 0
6.553978 15.537234 -0.80072606 28 0
6.5638747 15.407927 -0.80387008 28 0
6.5455551 15.193126 -0.80218452 28 0
6.5629363 15.092574 -0.80654818 28 0
6.5672998 14.954101 -0.80866849 28 0
6.5614362 14.787307 -0.80901259 28 0
6.5704398 14.668036 -0.81187505 28 0
6.5763636 14.549685 -0.8141157 28 0
6.590466 14.449481 -0.81781268 28 0
6.6007504 14.339885 -0.82083446 28 0
6.587409 14.164365 -0.81976134 28 0
6.5896001 14.036154 -0.82134068 28 0
6.6177893 13.983319 -0.82739538 28 0
6.6423283 13.921042 -0.83280867 28 0
6.6053329 13.689796 -0.82753688 28 0
6.6115336 13.580794 -0.82972956 28 0
6.6171103 13.471881 -0.83179545 28 0
6.6185775 13.353707 -0.83312768 28 0
6.6369476 13.282357 -0.8373884 28 0
6.6527481 13.211872 -0.84113109 28 0
6.6489124 13.084629 -0.84148741 28 0
6.6623473 13.004074 -0.84484625 28 0
6.6644406 12.895669 -0.84620494 28 0
6.7134604 12.90808 -0.85577869 28 0
6.7220592 12.818291 -0.85825562 28 0
6.7153015 12.691521 -0.85801911 28 0
6.6890893 12.518668 -0.85433888 28 0
6.7184343 12.484669 -0.86042148 28 0
6.6982183 12.330667 -0.85775733 28 0
6.6694517 12.158483 -0.85356081 28 0
6.6705208 12.06021 -0.85461181 28 0
6.6399527 11.888535 -0.85005128 28 0
6.6357679 11.781404 -0.85013813 28 0
6.6349192 11.683574 -0.85080099 28 0
6.6652665 11.659071 -0.85698473 28 0
6.6616392 11.562231 -0.85708797 28 0
6.6714425 11.492033 -0.85960853 28 0
6.6970654 11.458338 -0.86493355 28 0
6.7184482 11.415486 -0.86949897 28 0
6.7026367 11.290817 -0.86743021 28 0
6.7067957 11.211725 -0.86890656 28 0
6.714674 11.141777 -0.87103611 28 0
6.734746 11.099026 -0.87533468 28 0
6.7485886 11.048086 -0.87847507 28 0
6.7724571 11.014328 -0.88344139 28 0
6.7961669 10.98052 -0.88837492 28 0
6.7939043 10.892697 -0.88864976 28 0
6.7781672 10.778049 -0.88649666 28 0
6.6528349 10.439436 -0.86465913 28 0
6.6877079 10.432979 -0.87155265 28 0
6.7270007 10.435336 -0.87923974 28 0
6.7663622 10.437536 -0.88693959 28 0
6.801312 10.430675 -0.89384562 28 0
6.8407631 10.432583 -0.90156156 28 0
6.8712306 10.416573 -0.9076587 28 0
6.9062033 10.409328 -0.91456646 28 0
6.918292 10.357697 -0.91734344 28 0
6.9192328 10.289313 -0.91806859 28 0
6.9029665 10.184808 -0.91570914 28 0
6.8954153 10.098124 -0.91491288 28 0
6.8826966 10.002788 -0.91317165 28 0
6.8741517 9.9164076 -0.91217494 28 0
6.8651304 9.8301735 -0.91108209 28 0
6.8651533 9.761591 -0.91161829 28 0
6.8743863 9.7105656 -0.91381705 28 0
6.8737178 9.6421366 -0.91421336 28 0
6.8775234 9.5825043 -0.91541427 28 0
6.8746057 9.5151424 -0.91535956 28 0
6.8630667 9.4296398 -0.91375834 28 0
6.8559809 9.3529549 -0.91295749 28 0
6.8484669 9.2764053 -0.91207033 28 0
6.8554654 9.2258682 -0.91381651 28 0
6.8521924 9.1581526 -0.91368663 28 0
6.8485527 9.0905437 -0.91348273 28 0
6.8445511 9.0230408 -0.91320568 28 0
6.8401785 8.9556503 -0.91285378 28 0
6.8405499 8.8969154 -0.91336048 28 0
6.8354731 8.8297329 -0.91286641 28 0
6.8351994 8.7711754 -0.91324276 28 0
6.829421 8.7042093 -0.91260713 28 0
6.8284941 8.6458387 -0.91285163 28 0
6.820642 8.5799742 -0.91180104 28 0
6.8243451 8.530242 -0.91288072 28 0
6.8225002 8.4721365 -0.91293973 28 0
6.8203468 8.4141207 -0.91293657 28 0
6.8232322 8.3645897 -0.91385072 28 0
6.8258576 8.3151207 -0.91471243 28 0
6.8120422 8.2406273 -0.91255462 28 0
6.8140802 8.1913319 -0.91329759 28 0
6.8049755 8.1254435 -0.91199118 28 0
5.4497614 5.9791288 -0.66381508 0 0
5.4996619 6.0172172 -0.67323661 0 0
5.5220919 6.0137544 -0.67761278 0 0
5.5166631 5.9690094 -0.67686647 0 0
5.5156703 5.9332271 -0.67691809 0 0
6.7933893 7.6603069 -0.91293287 28 0
6.798223 7.6200027 -0.91413939 28 0
6.7844701 7.5562296 -0.91190022 28 0
6.787641 7.5169396 -0.91277498 28 0
6.7860389 7.46872 -0.91278315 28 0
6.789988 7.4286566 -0.91381085 28 0
6.7879186 7.3805752 -0.91372472 28 0
6.8148413 7.3727741 -0.91898483 28 0
6.8065248 7.3167448 -0.91773862 28 0
6.8156066 7.2848406 -0.91970044 28 0
6.8363895 7.2689095 -0.92382103 28 0
6.8630672 7.2608776 -0.92902929 28 0
6.8957157 7.2606864 -0.9353404 28 0
6.9224172 7.2524271 -0.94055182 28 0
6.9611588 7.2598767 -0.94798911 28 0
6.9879088 7.2513661 -0.95320851 28 0
7.0207243 7.2506223 -0.95954937 28 0
7.0463452 7.2428083 -0.96454358 28 0
7.0853434 7.2496314 -0.97202855 28 0
7.112155 7.2406502 -0.97725683 28 0
7.1451259 7.2393537 -0.98362529 28 0
7.1781425 7.2379136 -0.99000192 28 0
7.2112045 7.2363243 -0.99638671 28 0
7.244307 7.2345929 -1.0027786 28 0
7.277451 7.2327151 -1.0091778 28 0
7.310637 7.2306919 -1.0155846 28 0
7.3501749 7.2361903 -1.0231695 28 0
7.3708043 7.2185512 -1.0272456 28 0
7.404088 7.2161083 -1.0336691 28 0
7.4374118 7.2135181 -1.0400996 28 0
7.4707775 7.2107773 -1.0465375 28 0
7.5106025 7.2154613 -1.0541748 28 0
7.5376163 7.2048583 -1.059432 28 0
7.5764217 7.2102213 -1.0668663 28 0
7.596971 7.1918583 -1.0709205 28 0
7.637013 7.1958947 -1.0785971 28 0
7.6509786 7.1698704 -1.0814248 28 0
7.6451588 7.1214809 -1.0805706 28 0
7.6127543 7.0434957 -1.0747674 28 0
7.593143 6.9805913 -1.0713388 28 0
7.5665698 6.9104929 -1.0666102 28 0
7.5462804 6.8479886 -1.0630463 28 0
7.5256581 6.7856784 -1.0594161 28 0
7.5114069 6.7308826 -1.0569679 28 0
7.4968753 6.67624 -1.0544635 28 0
7.4888101 6.629024 -1.0531598 28 0
7.4602079 6.5601592 -1.0480266 28 0
7.4437914 6.5070004 -1.0451487 28 0
7.4349413 6.4602094 -1.0436882 28 0
7.4111872 6.4001465 -1.0394357 28 0
7.4038286 6.351656 -1.0382667 28 0
7.3863621 6.2991033 -1.0351791 28 0
7.3696213 6.2457228 -1.0322335 28 0
7.3526039 6.1925087 -1.0292325 28 0
7.349196 6.1536207 -1.0287675 28 0
7.331677 6.1006942 -1.0256664 28 0
7.3208737 6.0549684 -1.0238152 28 0
7.3028336 6.0023556 -1.0206102 28 0
7.3056092 5.9708867 -1.0212879 28 0
7.280045 5.9115787 -1.0166718 28 0
7.2683129 5.8663807 -1.0146351 28 0
7.2492657 5.8143835 -1.0112292 28 0
7.2370629 5.7694654 -1.0090985 28 0
7.2389078 5.7384343 -1.0095897 28 0
7.233458 5.7005873 -1.0087156 28 0
7.2197762 5.6569471 -1.0062928 28 0
7.2067552 5.612484 -1.0039988 28 0
7.2007322 5.5749431 -1.00301 28 0
7.187295 5.5307231 -1.0006326 28 0
7.1736355 5.4866419 -0.99821103 28 0
7.1670375 5.4494152 -0.99710739 28 0
7.1529622 5.4055848 -0.9946028 28 0
7.1459942 5.3685622 -0.99342507 28 0
7.1388474 5.3316345 -0.9922117 28 0
7.131526 5.2948003 -0.99096328 28 0
7.1306047 5.2655993 -0.99090374 28 0
7.1155586 5.2223506 -0.98820543 28 0
7.1077218 5.1858001 -0.98685408 28 0
7.0997114 5.1493459 -0.98546791 28 0
7.0989943 5.1194935 -0.98544502 28 0
7.0981426 5.089694 -0.98539513 28 0
7.0821533 5.0470262 -0.98250872 28 0
7.0734763 5.0109415 -0.9809894 28 0
7.0721736 4.9813647 -0.98084909 28 0
7.0631757 4.9454565 -0.97926557 28 0
7.0540085 4.9096494 -0.9776482 28 0
7.044672 4.8739448 -0.97599715 28 0
7.0351696 4.8383403 -0.9743129 28 0
7.0407786 4.815423 -0.97545844 28 0
7.0233173 4.7737145 -0.97227889 28 0
7.0210094 4.7446427 -0.97193724 28 0
7.0031781 4.7031908 -0.9686842 28 0
7.0082941 4.6804743 -0.96973056 28 0
6.9901104 4.6392636 -0.96640748 28 0
6.9794798 4.6043525 -0.96449828 28 0
6.9835424 4.5826983 -0.96533775 28 0
6.9804206 4.5540481 -0.96483314 28 0
6.9686799 4.5202975 -0.96270627 28 0
6.9581418 4.4848361 -0.96081173 28 0
6.9546065 4.4564176 -0.96022451 28 0
6.9352126 4.4160719 -0.95666093 28 0
6.9392772 4.3937964 -0.95749605 28 0
6.9353528 4.3655868 -0.95683104 28 0
6.931303 4.3374429 -0.95614094 28 0
6.9112496 4.2975764 -0.9524464 28 0
6.9062791 4.2705092 -0.95157659 28 0
6.8944879 4.2358685 -0.94943249 28 0
6.9058847 4.2196903 -0.951635 28 0
6.8931932 4.1861043 -0.94931525 28 0
6.8803449 4.1526361 -0.94696432 28 0
6.8753881 4.1250262 -0.94609314 28 0
6.8697014 4.0983753 -0.94508028 28 0
6.8645091 4.0708995 -0.94416207 28 0
6.8591971 4.0434923 -0.94321996 28 0
6.8456507 4.0105133 -0.94073033 28 0
6.8400831 3.9832706 -0.93973732 28 0
6.8343978 3.9560978 -0.9387207 28 0
6.8285937 3.9289954 -0.93768048 28 0
6.8226748 3.9019613 -0.9366172 28 0
6.8084326 3.8694932 -0.93398952 28 0
6.8104801 3.8481126 -0.93441975 28 0
6.7959714 3.8158417 -0.93173909 28 0
6.797822 3.7945514 -0.9321298 28 0
6.7824941 3.7633581 -0.92929018 28 0
6.7924347 3.7475424 -0.93119818 28 0
6.777421 3.7156394 -0.92841721 28 0
6.7788963 3.6945159 -0.92873257 28 0
6.7719536 3.6681161 -0.92746532 28 0
6.7565465 3.6365213 -0.92460644 28 0
6.7577305 3.6155419 -0.92486346 28 0
6.7504482 3.5893707 -0.92352861 28 0
6.7514534 3.5684674 -0.92374969 28 0
6.7439628 3.5424242 -0.92237318 28 0
6.736361 3.5164557 -0.92097467 28 0
6.7286463 3.4905684 -0.91955364 28 0
6.7287798 3.4707119 -0.91960484 28 0
6.7213631 3.4440866 -0.918239 28 0
6.7218285 3.4234364 -0.91835183 28 0
6.7137027 3.3978128 -0.91684896 28 0
6.7139926 3.3772438 -0.91692662 28 0
6.7056637 3.3517537 -0.91538328 28 0
6.7053022 3.3321292 -0.91533524 28 0
6.696775 3.3067732 -0.91375244 28 0
6.6881399 3.2814996 -0.91214824 28 0
6.6879978 3.261148 -0.91213936 28 0
6.687778 3.2408242 -0.9121148 28 0
6.6788507 3.2157447 -0.91045243 28 0
6.678462 3.1955059 -0.91039407 28 0
6.6779957 3.1752956 -0.9103201 28 0
6.6687789 3.1504135 -0.90860015 28 0
6.6681452 3.13029 -0.90849262 28 0
6.6674347 3.1101964 -0.90836978 28 0
6.6579313 3.0855153 -0.90659279 28 0
6.6478896 3.0617745 -0.90471327 28 0
6.6556721 3.0463915 -0.90618396 28 0
6.6371303 3.0173774 -0.90270495 28 0
6.6447754 3.0020287 -0.90414786 28 0
6.6260133 2.973218 -0.90062547 28 0
6.633523 2.9579053 -0.90204102 28 0
6.6233568 2.9337225 -0.90013266 28 0
6.6219168 2.9140234 -0.89986384 28 0
6.6115613 2.8899906 -0.89791793 28 0
6.6188145 2.8747244 -0.8992815 28 0
6.6171527 2.8551252 -0.89896822 28 0
6.6154175 2.8355596 -0.89864004 28 0
6.6043229 2.8126211 -0.89655173 28 0
6.5935245 2.7889256 -0.89451796 28 0
6.6004667 2.7737176 -0.89581853 28 0
6.5805635 2.7459795 -0.89207143 28 0
6.5873733 2.7308128 -0.89334518 28 0
3.6178887 -1.0028447 -0.90159214 28 0
3.6171763 -1.0090019 -0.901088 28 0
3.6253023 -1.0165889 -0.90499556 28 0
3.6156945 -1.0213085 -0.9000681 28 0
3.6149254 -1.0274581 -0.89955252 28 0
3.6141372 -1.0336047 -0.89903313 28 0
3.6133299 -1.0397487 -0.89850992 28 0
3.6125035 -1.0458897 -0.8979829 28 0
3.6204925 -1.05364 -0.90185249 28 0
3.6107459 -1.0585037 -0.89688778 28 0
3.627512 -1.067983 -0.90513921 28 0
3.6266003 -1.0741719 -0.90459162 28 0
3.6256692 -1.0803573 -0.90404028 28 0
3.6159077 -1.0847763 -0.8990981 28 0
3.6237502 -1.0927185 -0.90292615 28 0
3.6227622 -1.0988942 -0.90236348 28 0
3.6217549 -1.1050663 -0.90179694 28 0
3.6118791 -1.1096934 -0.89681894 28 0
3.6108379 -1.1158286 -0.89624745 28 0
3.6097777 -1.12196 -0.89567232 28 0
3.617475 -1.1300616 -0.89946097 28 0
3.6163716 -1.1362156 -0.89887542 28 0
3.6240151 -1.1443988 -0.90264809 28 0
3.6141078 -1.148512 -0.89769328 28 0
3.6041281 -1.1529015 -0.89270729 28 0
3.6029534 -1.1590099 -0.89210963 28 0
3.619246 -1.1694213 -0.90020847 28 0
3.6180217 -1.1755809 -0.89959759 28 0
3.6167786 -1.1817364 -0.89898288 28 0
3.6067915 -1.1856455 -0.89402324 28 0
3.6055164 -1.1917628 -0.89340407 28 0
3.6215746 -1.2028211 -0.90141678 28 0
3.6028364 -1.2043238 -0.89211994 28 0
3.6102033 -1.2127895 -0.89581859 28 0
3.6175382 -1.2213099 -0.89950746 28 0
3.6161547 -1.2274636 -0.89886361 28 0
3.6147521 -1.2336128 -0.89821613 28 0
3.6133306 -1.2397571 -0.89756489 28 0
3.6205559 -1.2484056 -0.90122354 28 0
3.6190073 -1.2549118 -0.90052497 28 0
3.6088693 -1.2585011 -0.89555234 28 0
3.6073709 -1.2646254 -0.89488626 28 0
3.6144905 -1.2733729 -0.89851719 28 0
3.6215765 -1.2821735 -0.90213805 28 0
3.602762 -1.2829679 -0.89286613 28 0
3.6098027 -1.2917874 -0.89647645 28 0
3.6082022 -1.2979151 -0.89578897 28 0
3.6151822 -1.3068116 -0.89938217 28 0
3.6048532 -1.3104941 -0.89436424 28 0
3.6031947 -1.3166049 -0.89366567 28 0
3.6015177 -1.3227105 -0.89296341 28 0
3.6083889 -1.3317025 -0.89652848 28 0
3.5981069 -1.3349046 -0.89154822 28 0
3.6049237 -1.3439429 -0.89509928 28 0
3.6031628 -1.3500545 -0.89437932 28 0
3.6012838 -1.3564992 -0.89361537 28 0
3.599484 -1.3625985 -0.89288795 28 0
3.5976655 -1.3686919 -0.89215702 28 0
3.6043358 -1.3778754 -0.89566916 28 0
3.593972 -1.3808602 -0.89068443 28 0
3.609077 -1.393243 -0.89842194 28 0
3.5985782 -1.3965251 -0.89339185 28 0
3.5966554 -1.4026158 -0.89263934 28 0
3.6031761 -1.4119416 -0.89611208 28 0
3.5927539 -1.4147779 -0.89112371 28 0
3.5907748 -1.4208492 -0.89036065 28 0
3.5803428 -1.4235861 -0.88537604 28 0
3.4602857 -1.3829416 -0.82556874 28 0
3.3910773 -1.3614737 -0.79116565 28 0
3.3724356 -1.3600322 -0.78205889 28 0
3.3706064 -1.3653575 -0.78137016 28 0
3.3603756 -1.3672048 -0.77647889 28 0
3.3501484 -1.3689893 -0.7715919 28 0
3.3399248 -1.3707107 -0.76670939 28 0
3.3380604 -1.3759264 -0.76601958 28 0
3.3277307 -1.3778381 -0.76110393 28 0
3.3175094 -1.3793975 -0.75623125 28 0
3.32394 -1.3881809 -0.75971657 28 0
3.3220208 -1.3933427 -0.75901842 28 0
3.3200855 -1.3984982 -0.75831735 28 0
3.3098426 -1.3999195 -0.75344807 28 0
3.3160574 -1.4090756 -0.75686693 28 0
3.3140736 -1.4142113 -0.75615686 28 0
3.3120739 -1.4193406 -0.75544387 28 0
3.3018105 -1.4206215 -0.75057846 28 0
3.2997901 -1.4257094 -0.74986356 28 0
3.3059795 -1.4346882 -0.75328732 28 0
3.3038013 -1.440074 -0.75252229 28 0
3.3017216 -1.4451692 -0.75179458 28 0
3.2996259 -1.4502575 -0.751064 28 0
3.2975147 -1.455339 -0.75033051 28 0
3.303555 -1.4644516 -0.75371546 28 0
3.3014007 -1.4695466 -0.75297225 28 0
3.2992306 -1.4746346 -0.75222611 28 0
3.3051767 -1.4838365 -0.75558627 28 0
3.3110831 -1.4930863 -0.75893545 28 0
3.4546499 -1.5736922 -0.83194399 28 0
3.5736017 -1.6423796 -0.89255357 28 0
3.5790071 -1.6526248 -0.89574081 28 0
3.5843694 -1.6629157 -0.89891648 28 0
3.5735717 -1.6646776 -0.8939119 28 0
3.5708258 -1.6706904 -0.89299238 28 0
3.5760946 -1.6810366 -0.8961454 28 0
3.5732989 -1.6870586 -0.89521492 28 0
3.5704846 -1.6930714 -0.89428121 28 0
3.5676517 -1.699075 -0.8933441 28 0
3.5648003 -1.7050693 -0.89240366 28 0
3.5617702 -1.7113862 -0.89140737 28 0
3.5588806 -1.7173612 -0.89046013 28 0
3.5639148 -1.72786 -0.8935554 28 0
3.5689039 -1.7384033 -0.89663875 28 0
3.5659323 -1.7444034 -0.89567286 28 0
3.5550399 -1.7457793 -0.89067096 28 0
3.5597656 -1.7567061 -0.89367723 28 0
3.5646117 -1.7673454 -0.89672518 28 0
3.5615511 -1.773332 -0.89574158 28 0
3.5506248 -1.774586 -0.89073974 28 0
3.5553744 -1.7852752 -0.89376462 28 0
3.5444391 -1.7864556 -0.8887651 28 0
3.5569291 -1.8019804 -0.89577633 28 0
3.5459709 -1.8031137 -0.89077479 28 0
3.5505767 -1.8138946 -0.8937645 28 0
3.5551355 -1.8247182 -0.89674193 28 0
3.5362232 -1.8211867 -0.8876996 28 0
3.540729 -1.8320163 -0.89066577 28 0
3.5451877 -1.8428879 -0.89361954 28 0
3.5418949 -1.8488126 -0.89259112 28 0
3.546273 -1.8597413 -0.89552498 28 0
3.5275791 -1.8555887 -0.88656402 28 0
3.5319059 -1.8665216 -0.88948679 28 0
3.5361848 -1.8774959 -0.89239722 28 0
3.5402253 -1.8888397 -0.89523661 28 0
3.5367916 -1.8947499 -0.8941797 28 0
3.5257404 -1.8954767 -0.88918233 28 0
3.5298691 -1.9065367 -0.89205647 28 0
3.5263805 -1.9124131 -0.89099014 28 0
3.5153205 -1.9130285 -0.88599724 28 0
3.5268862 -1.9294068 -0.89276659 28 0
3.5233276 -1.9352744 -0.89168608 28 0
3.5272572 -1.9464567 -0.89451182 28 0
3.5236464 -1.9523263 -0.8934204 28 0
3.5198154 -1.9585093 -0.89226496 28 0
3.5161672 -1.9643546 -0.89116716 28 0
3.5197382 -1.9759427 -0.89389461 28 0
3.5162432 -1.9814646 -0.89284742 28 0
3.5051146 -1.9818192 -0.88785535 28 0
3.5087881 -1.9931219 -0.89062059 28 0
3.5048244 -1.9992546 -0.88944048 28 0
3.5084112 -2.0106089 -0.89218479 28 0
3.5119472 -2.022001 -0.89491624 28 0
3.5081046 -2.0278237 -0.89377922 28 0
3.496933 -2.0280018 -0.88878846 28 0
3.4930711 -2.0337741 -0.88765031 28 0
3.4964688 -2.0452158 -0.8903501 28 0
3.499815 -2.0566945 -0.89303708 28 0
3.4958656 -2.0624785 -0.89188015 28 0
3.4918983 -2.0682495 -0.89072013 28 0
3.4879131 -2.0740077 -0.88955712 28 0
3.4911029 -2.0855579 -0.89220732 28 0
3.48684 -2.091634 -0.89096814 28 0
3.4899404 -2.1032319 -0.89359695 28 0
3.4858482 -2.1089857 -0.89241195 28 0
3.4888611 -2.12063 -0.89501989 28 0
3.4776106 -2.1204531 -0.89003313 28 0
3.4805524 -2.1321192 -0.89262503 28 0
3.4834416 -2.1438203 -0.89520395 28 0
3.4721727 -2.1435542 -0.8902185 28 0
3.4820254 -2.1613009 -0.89655191 28 0
3.4634864 -2.1552494 -0.88773304 28 0
3.4662313 -2.1669919 -0.89027953 28 0
3.4689226 -2.1787686 -0.89281285 28 0
3.4645987 -2.1844571 -0.89158326 28 0
3.4602568 -2.1901314 -0.89035088 28 0
3.4697478 -2.2081299 -0.89659435 28 0
3.4584272 -2.2076304 -0.89161164 28 0
3.4606562 -2.2198169 -0.89402491 28 0
3.4493372 -2.2192392 -0.88904703 28 0
3.4517386 -2.2311294 -0.89151341 28 0
3.4475033 -2.2364514 -0.89032352 28 0
3.4359379 -2.2360728 -0.88528275 28 0
3.4382312 -2.2479894 -0.88772511 28 0
3.4404693 -2.2599378 -0.89015406 28 0
3.4358954 -2.2655365 -0.88887769 28 0
3.4380419 -2.2775247 -0.89128524 28 0
3.4266961 -2.2766898 -0.8863166 28 0
3.4287696 -2.2886937 -0.88870806 28 0
3.4241076 -2.2942557 -0.88741535 28 0
3.426089 -2.3062983 -0.88978553 28 0
3.4147313 -2.3053341 -0.88482183 28 0
3.4163761 -2.3176987 -0.88710326 28 0
3.4182265 -2.3297865 -0.88944334 28 0
3.4131715 -2.3356233 -0.888053 28 0
3.4020703 -2.3342202 -0.8831681 28 0
3.4103532 -2.352962 -0.889117 28 0
3.4120169 -2.3651221 -0.89141405 28 0
3.4071207 -2.3706341 -0.8900755 28 0
3.3957238 -2.3694303 -0.88511759 28 0
3.3908131 -2.3748882 -0.88377917 28 0
3.3987725 -2.3938181 -0.88964987 28 0
3.4002111 -2.4060538 -0.89189565 28 0
3.3951893 -2.4115295 -0.89053303 28 0
3.3901503 -2.4169886 -0.88916779 28 0
3.3850944 -2.4224319 -0.88779992 28 0
3.3860805 -2.4350142 -0.88993138 28 0
3.3746486 -2.4335687 -0.8849802 28 0
3.3758414 -2.4458594 -0.88717157 28 0
3.376976 -2.4581766 -0.8893494 28 0
3.3780527 -2.4705205 -0.89151353 28 0
3.3728328 -2.4759276 -0.89011359 28 0
3.3675961 -2.4813178 -0.88871109 28 0
3.3685393 -2.4936965 -0.89084554 28 0
3.3632483 -2.4990737 -0.88943249 28 0
3.3579404 -2.5044336 -0.88801694 28 0
3.3526161 -2.5097766 -0.88659894 28 0
3.3533874 -2.5221925 -0.88869536 28 0
3.3601911 -2.541744 -0.89428926 28 0
3.3483818 -2.5402613 -0.88926154 28 0
3.3429475 -2.5455756 -0.88782233 28 0
3.343523 -2.5580471 -0.88987464 28 0
3.3380344 -2.5633466 -0.88842493 28 0
3.3325291 -2.5686283 -0.88697278 28 0
3.3270073 -2.5738921 -0.88551831 28 0
3.3274095 -2.5863953 -0.88753271 28 0
3.3218334 -2.5916438 -0.88606781 28 0
3.3221376 -2.6041722 -0.88806033 28 0
3.3165069 -2.6094046 -0.88658494 28 0
3.3167129 -2.6219573 -0.88855559 28 0
3.3110278 -2.6271734 -0.88706976 28 0
3.3053265 -2.6323709 -0.88558161 28 0
3.3050766 -2.645237 -0.88743931 28 0
3.3050833 -2.6578364 -0.88936579 28 0
3.2992883 -2.663017 -0.88785911 28 0
3.299196 -2.6756384 -0.88976371 28 0
3.2933464 -2.6808012 -0.88824672 28 0
3.2931547 -2.6934438 -0.89012939 28 0
3.2872508 -2.6985881 -0.88860208 28 0
3.2869596 -2.7112513 -0.89046293 28 0
3.2810011 -2.7163768 -0.88892537 28 0
3.2806103 -2.7290595 -0.89076412 28 0
3.2690356 -2.7265699 -0.88584352 28 0
3.2519517 -2.7164075 -0.87756532 28 0
3.2404594 -2.713783 -0.87266958 28 0
3.228997 -2.7111013 -0.86778343 28 0
3.2230351 -2.7160344 -0.8662563 28 0
3.2116106 -2.7132571 -0.8613835 28 0
3.2002172 -2.7104228 -0.85652059 28 0
3.199656 -2.7229888 -0.85833067 28 0
3.1829007 -2.7123311 -0.85014957 28 0
3.1715777 -2.7093456 -0.84530997 28 0
3.159956 -2.7065651 -0.84039629 28 0
3.1540034 -2.7112689 -0.83888441 28 0
3.1427529 -2.7081308 -0.83406872 28 0
3.1315348 -2.704937 -0.82926309 28 0
3.1255856 -2.7095461 -0.82775724 28 0
3.1196215 -2.7141361 -0.8262496 28 0
3.1084545 -2.7108116 -0.82146204 28 0
3.0973206 -2.707432 -0.81668466 28 0
3.0810785 -2.6960661 -0.80865139 28 0
3.0802705 -2.7084563 -0.81042027 28 0
3.0743074 -2.7128956 -0.80892134 28 0
3.0581903 -2.7013476 -0.80092478 28 0
3.0472014 -2.6977117 -0.79619223 28 0
3.0412686 -2.7020407 -0.79470611 28 0
3.0303245 -2.6983137 -0.78998828 28 0
3.0194154 -2.6945329 -0.78528088 28 0
3.0184402 -2.7068412 -0.78701967 28 0
3.0075526 -2.7029872 -0.78232092 28 0
2.9967005 -2.69908 -0.77763277 28 0
2.9810073 -2.6869965 -0.7697553 28 0
2.9751034 -2.6911054 -0.7682879 28 0
2.9691863 -2.6951952 -0.76681882 28 0
2.9632566 -2.699266 -0.76534826 28 0
2.9525354 -2.695127 -0.7607007 28 0
2.9418507 -2.6909361 -0.75606376 28 0
2.9359322 -2.6949158 -0.75460076 28 0
2.9296715 -2.6990962 -0.75305486 28 0
2.919049 -2.6947794 -0.74843824 28 0
2.9177711 -2.7069578 -0.75012136 28 0
2.9071736 -2.7025702 -0.74551398 28 0
2.8966138 -2.6981306 -0.74091738 28 0
2.890671 -2.701962 -0.73945791 28 0
2.880162 -2.6974356 -0.73487699 28 0
2.8742201 -2.7012126 -0.73342085 28 0
2.8727701 -2.7133405 -0.735071 28 0
2.8623009 -2.708709 -0.73050451 28 0
2.8563237 -2.7124281 -0.72904438 28 0
2.854763 -2.7245452 -0.73067212 28 0
2.8487372 -2.7282412 -0.72920316 28 0
2.8426998 -2.7319179 -0.72773296 28 0
2.8410032 -2.7440383 -0.72933221 28 0
2.8349173 -2.7476914 -0.7278533 28 0
2.82882 -2.7513247 -0.72637308 28 0
2.8227115 -2.7549381 -0.72489166 28 0
2.8165915 -2.758532 -0.72340894 28 0
2.8146844 -2.7706454 -0.72496486 28 0
2.8085163 -2.7742145 -0.72347355 28 0
2.8065097 -2.7863324 -0.72500843 28 0
2.7961466 -2.7812929 -0.72048753 28 0
2.798187 -2.8019984 -0.72502249 28 0
2.7878277 -2.7969043 -0.72050554 28 0
2.7815783 -2.8003879 -0.71900225 28 0
2.7753179 -2.8038516 -0.71749789 28 0
2.7650297 -2.7986388 -0.7130025 28 0
2.7587736 -2.802048 -0.71150219 28 0
2.7485418 -2.7967525 -0.70702344 28 0
2.7422907 -2.8001068 -0.70552737 28 0
2.7360291 -2.8034413 -0.70403016 28 0
2.7297571 -2.8067553 -0.70253193 28 0
2.715754 -2.7925696 -0.69512814 28 0
2.7095139 -2.7958157 -0.69364047 28 0
2.7070708 -2.8078089 -0.69509161 28 0
2.700784 -2.8110285 -0.69359583 28 0
2.6869779 -2.7966394 -0.68624473 28 0
2.6807237 -2.7997916 -0.68475962 28 0
2.6748078 -2.8027501 -0.68335623 28 0
2.6685345 -2.8058627 -0.68186945 28 0
2.6586015 -2.8001091 -0.67747945 28 0
2.6523354 -2.8031688 -0.6759972 28 0
2.6460595 -2.8062077 -0.67451411 28 0
2.6433437 -2.8181117 -0.67591357 28 0
2.6405647 -2.8300209 -0.67729962 28 0
2.6412387 -2.8508456 -0.68154293 28 0
2.6348174 -2.8538539 -0.68003136 28 0
2.6353109 -2.8747127 -0.68423516 28 0
2.6253817 -2.8687565 -0.67985761 28 0
2.6219518 -2.8808398 -0.68109792 28 0
2.6221981 -2.9017351 -0.68524808 28 0
2.618974 -2.9136727 -0.68653977 28 0
2.6123607 -2.9166155 -0.68499196 28 0
2.6090367 -2.9285464 -0.68626314 28 0
2.6023779 -2.9314585 -0.68470752 28 0
2.5957098 -2.9343493 -0.68315136 28 0
2.5922494 -2.9462633 -0.68439519 28 0
2.585536 -2.9491224 -0.68283135 28 0
2.5756516 -2.9428926 -0.67847896 28 0
2.575217 -2.9638557 -0.68248326 28 0
2.568449 -2.9666615 -0.68091118 28 0
2.5678322 -2.9876497 -0.68487626 28 0
2.5640445 -2.9995475 -0.68605274 28 0
2.5571678 -3.002321 -0.68445987 28 0
2.5472848 -2.9959371 -0.68011671 28 0
2.5433879 -3.0078015 -0.68127239 28 0
2.5394273 -3.0196657 -0.68241483 28 0
2.5324883 -3.022361 -0.68081343 28 0
2.5284278 -3.0342128 -0.68193579 28 0
2.5214441 -3.0368743 -0.68032706 28 0
2.514452 -3.0395131 -0.67871791 28 0
2.5074513 -3.0421295 -0.67710829 28 0
2.5032184 -3.0539434 -0.67819691 28 0
2.4961734 -3.0565248 -0.67658007 28 0
2.4864004 -3.0498433 -0.67227697 28 0
2.4820595 -3.0616198 -0.67334527 28 0
2.4749904 -3.0641332 -0.6717273 28 0
2.4679132 -3.0666237 -0.67010897 28 0
2.4634364 -3.0783715 -0.67115057 28 0
2.4563153 -3.080826 -0.66952521 28 0
2.4491866 -3.0832579 -0.66789955 28 0
2.4395263 -3.0763578 -0.66363257 28 0
2.4349065 -3.0880525 -0.66464752 28 0
2.4302225 -3.0997429 -0.66564929 28 0
2.4230351 -3.1020918 -0.66401619 28 0
2.4158404 -3.1044176 -0.6623829 28 0
2.4086382 -3.1067204 -0.66074938 28 0
2.3990741 -3.0996363 -0.65651304 28 0
2.394212 -3.1112566 -0.65748179 28 0
2.3869879 -3.1134899 -0.65584773 28 0
2.3820267 -3.1250899 -0.65679693 28 0
2.3747602 -3.127285 -0.65515625 28 0
2.3652737 -3.1200497 -0.65094489 28 0
2.3602061 -3.1316056 -0.6518746 28 0
2.3550749 -3.1431546 -0.65279138 28 0
2.3477523 -3.1452646 -0.65114397 28 0
2.3383241 -3.1379106 -0.6469515 28 0
2.3310168 -3.1399653 -0.6453104 28 0
2.3237028 -3.1419964 -0.64366925 28 0
2.3183954 -3.1534681 -0.6445539 28 0
2.3090556 -3.1459885 -0.64038712 28 0
2.303678 -3.1574283 -0.64125896 28 0
2.2967196 -3.1592655 -0.63970309 28 0
2.2912459 -3.170682 -0.64055616 28 0
2.2800939 -3.153585 -0.63391453 28 0
2.2764218 -3.1744697 -0.63724893 28 0
2.2708147 -3.1858442 -0.63807666 28 0
2.2615736 -3.1781626 -0.63394219 28 0
2.2519729 -3.1705425 -0.62972933 28 0
2.2445629 -3.1723206 -0.62808281 28 0
2.2388439 -3.1836195 -0.62889159 28 0
2.2330616 -3.1949079 -0.62968773 28 0
2.2243516 -3.1869762 -0.62567836 28 0
2.2168903 -3.1886671 -0.62402624 28 0
2.21259 -3.2094741 -0.62723428 28 0
2.2035058 -3.2015533 -0.6231463 28 0
2.1990495 -3.2223442 -0.62632287 28 0
2.192976 -3.2335467 -0.62706333 28 0
2.1853721 -3.235142 -0.62538701 28 0
2.1763251 -3.2271113 -0.62131315 28 0
2.167331 -3.2190449 -0.61725241 28 0
2.16115 -3.2301679 -0.617975 28 0
2.1535552 -3.2316597 -0.6163066 28 0
2.1472766 -3.2427514 -0.61701083 28 0
2.1396432 -3.2441998 -0.61533684 28 0
2.1320047 -3.2456236 -0.6136632 28 0
2.1243615 -3.2470226 -0.61199009 28 0
2.1203287 -3.2773347 -0.61735773 28 0
2.1106644 -3.2593241 -0.6110788 28 0
2.1036985 -3.2703857 -0.61164147 28 0
2.095979 -3.2716966 -0.60995758 28 0
2.0899992 -3.2923858 -0.61282253 28 0
2.0826452 -3.2935855 -0.61122108 28 0
2.0769136 -3.3141818 -0.61414319 28 0
2.0690603 -3.315412 -0.612436 28 0
2.0602322 -3.3069327 -0.60843366 28 0
2.0524004 -3.3081081 -0.6067341 28 0
2.0445647 -3.3092582 -0.60503519 28 0
2.036725 -3.3103833 -0.60333699 28 0
2.0297356 -3.3211846 -0.60390979 28 0
2.0214708 -3.3124986 -0.6000368 28 0
2.015213 -3.3329678 -0.60285658 28 0
2.0073006 -3.3340013 -0.60114849 28 0
1.998647 -3.3252926 -0.59719568 28 0
1.9893413 -3.3068306 -0.59101754 28 0
1.9821854 -3.3175013 -0.59156328 28 0
1.9762657 -3.3476081 -0.59654969 28 0
1.9695463 -3.3679795 -0.59927905 28 0
1.9615258 -3.3688703 -0.59755659 28 0
1.9536152 -3.3795202 -0.59794641 28 0
1.9450296 -3.3706203 -0.59401882 28 0
1.9379998 -3.3909194 -0.59668761 28 0
1.9308302 -3.4014146 -0.59724063 28 0
1.9227068 -3.402185 -0.59550381 28 0
1.9145807 -3.4029291 -0.59376782 28 0
1.9079854 -3.4426649 -0.60071027 28 0
1.9003339 -3.472676 -0.60534143 28 0
1.8919932 -3.4733577 -0.60356444 28 0
1.8844085 -3.4837384 -0.60403764 28 0
1.8760335 -3.48437 -0.60225636 28 0
1.867186 -3.4654431 -0.59620047 28 0
1.8590719 -3.475785 -0.59656554 28 0
1.8508964 -3.4861042 -0.59691924 28 0
1.8425132 -3.4866285 -0.59514248 28 0
1.8341284 -3.4871261 -0.59336686 28 0
1.8258287 -3.4973717 -0.59369886 28 0
1.8176407 -3.5369241 -0.60032016 28 0
1.8091303 -3.5471265 -0.60061073 28 0
1.8005503 -3.6062026 -0.61132842 28 0
1.7916127 -3.6652665 -0.62197238 28 0
1.7826841 -3.6656241 -0.62009156 28 0
1.7726659 -3.7833512 -0.64303935 28 0
1.7631376 -3.8032317 -0.64521182 28 0
1.7531892 -3.8426564 -0.65147358 28 0
1.7433617 -3.8624856 -0.65358669 28 0
1.7334145 -3.8822875 -0.65567642 28 0
1.7235864 -3.8922739 -0.65570503 28 0
1.7134295 -3.9120185 -0.65775436 28 0
1.7034514 -3.9219458 -0.6577552 28 0
1.6927567 -3.9514196 -0.66178334 28 0
1.6829569 -3.9514976 -0.65973729 28 0
1.6727688 -3.961333 -0.65969962 28 0
1.6621038 -3.9809263 -0.66165179 28 0
1.6535547 -3.9515431 -0.65360922 28 0
1.644773 -3.9417102 -0.64969474 28 0
1.6329818 -3.980787 -0.65559274 28 0
1.6214876 -4.0100422 -0.6594671 28 0
1.6109436 -4.0196872 -0.65936631 28 0
1.6027157 -3.9901502 -0.65139955 28 0
1.5915484 -4.0095181 -0.65326017 28 0
1.5796093 -4.0386372 -0.6570496 28 0
1.5682974 -4.0481334 -0.65679735 28 0
1.5582001 -4.0478253 -0.65471154 28 0
1.5473597 -4.0572681 -0.65456074 28 0
1.5372343 -4.0568948 -0.65247285 28 0
1.5271097 -4.0564885 -0.65038705 28 0
1.5178196 -4.0462704 -0.64638889 28 0
1.5077268 -4.0458007 -0.6443134 28 0
1.4976349 -4.0452991 -0.64223987 28 0
1.4875444 -4.044765 -0.64016861 28 0
1.4761149 -4.0637779 -0.64199513 28 0
1.4640079 -4.0827212 -0.64368451 28 0
1.452793 -4.0918546 -0.64347351 28 0
1.4394428 -4.1204872 -0.64699709 28 0
1.4049966 -4.3345866 -0.68581837 28 0
1.3918252 -4.3533216 -0.687298 28 0
1.38141 -4.3525372 -0.68517351 28 0
1.3692263 -4.3614316 -0.68477452 28 0
1.358173 -4.3605285 -0.68252391 28 0
1.3452896 -4.3692913 -0.68198663 28 0
1.3329635 -4.3780646 -0.68156493 28 0
1.3231367 -4.3673 -0.67748654 28 0
1.3094493 -4.3857431 -0.67887568 28 0
1.3103555 -4.2969637 -0.66031623 28 0
1.3104308 -4.2179432 -0.64367294 28 0
1.3053966 -4.177886 -0.63432628 28 0
1.2997547 -4.1476173 -0.62694061 28 0
1.2916811 -4.1269388 -0.62114716 28 0
1.2828223 -4.1160307 -0.6172787 28 0
1.2709963 -4.1245446 -0.61697626 28 0
1.2612334 -4.1233683 -0.61501032 28 0
1.2508994 -4.1220903 -0.61293125 28 0
1.2373658 -4.1402054 -0.6143713 28 0
1.2286111 -4.1291447 -0.61053342 28 0
1.2182589 -4.1277637 -0.60845649 28 0
1.2096004 -4.1166482 -0.60464185 28 0
1.1992856 -4.1152053 -0.60257632 28 0
1.1872257 -4.1234221 -0.60224217 28 0
1.1786685 -4.1122203 -0.59845358 28 0
1.1665583 -4.1203628 -0.59811324 28 0
1.156231 -4.118783 -0.59605306 28 0
1.1440415 -4.1268458 -0.59570086 28 0
1.1355901 -4.1155252 -0.59194112 28 0
1.1195003 -4.1428437 -0.59496999 28 0
1.0211331 -4.5758519 -0.66884708 28 0
1.0034674 -4.6028366 -0.67156708 28 0
0.98965883 -4.6104517 -0.67090338 28 0
0.97579736 -4.6180191 -0.67023152 28 0
0.95981109 -4.6351781 -0.67121577 28 0
0.94161212 -4.6619129 -0.67383891 28 0
0.92537469 -4.6789474 -0.67477804 28 0
0.91766691 -4.6574254 -0.66910964 28 0
0.9035148 -4.6647434 -0.66839164 28 0
0.89152962 -4.6623988 -0.66603023 28 0
0.87347794 -4.6889706 -0.66869336 28 0
0.85914314 -4.696135 -0.66794628 28 0
0.84245229 -4.7128439 -0.66880971 28 0
0.8256523 -4.7294898 -0.66965419 0 0
0.81110591 -4.7364902 -0.66887242 0 0
0.79582912 -4.7432904 -0.66794991 0 0
0.78360319 -4.7406139 -0.6655575 0 0
0.75173199 -4.7638159 -0.66553658 0 0
0.7344231 -4.7801032 -0.66629559 0 0
0.72208411 -4.7772369 -0.66389066 0 0
0.69948143 -4.812479 -0.66775793 0 0
0.68444628 -4.819036 -0.6668998 0 0
0.66673619 -4.835063 -0.6675905 0 0
0.65422887 -4.8319898 -0.66516238 0 0
0.64173055 -4.828876 -0.66273856 0 0
0.62652856 -4.8352246 -0.66185778 0 0
0.60579491 -4.8605056 -0.66403675 0 0
0.58766818 -4.8762155 -0.66465896 0 0
0.56663615 -4.9013338 -0.66678542 0 0
0.55745822 -4.88867 -0.66295195 0 0
0.53836787 -4.9039936 -0.6633957 0 0
0.51987725 -4.9194341 -0.66395754 0 0
0.50128204 -4.9348025 -0.66450185 0 0
0.48846853 -4.9312186 -0.66203952 0 0
0.46972165 -4.9464569 -0.66255957 0 0
0.44858888 -4.971251 -0.6646837 0 0
0.43566406 -4.9675055 -0.66220748 0 0
0.4166373 -4.982532 -0.66268152 0 0
0.40059263 -4.9880862 -0.66167116 0 0
0.38761565 -4.9841914 -0.65919274 0 0
0.37150815 -4.9896359 -0.65817559 0 0
0.35146022 -5.0041699 -0.65846539 0 0
0.332032 -5.0188479 -0.65887588 0 0
0.31250256 -5.0334492 -0.65926993 0 0
0.29287064 -5.0479722 -0.65964705 0 0
0.27970996 -5.0437446 -0.65714949 0 0
0.25661826 -5.0674553 -0.65892828 0 0
0.23744895 -5.0819945 -0.65940076 0 0
0.21744446 -5.0962129 -0.65971792 0 0
0.20073779 -5.1010542 -0.65861082 0 0
0.18741485 -5.0965424 -0.65609598 0 0
0.16719587 -5.1105485 -0.65638071 0 0
0.15036051 -5.1152029 -0.65525752 0 0
0.13348202 -5.1197948 -0.65412903 0 0
0.10948296 -5.1428246 -0.65575784 0 0
0.085329317 -5.1657519 -0.65736043 0 0
0.071807534 -5.1608853 -0.65482467 0 0
0.051053256 -5.1744156 -0.65502542 0 0
0.03750458 -5.1694422 -0.65249026 0 0
0.016611425 -5.1828237 -0.65267044 0 0
-0.00067077798 -5.1869311 -0.6514858 0 0
-0.029200008 -5.2185092 -0.65433007 0 0
-0.050411094 -5.2316246 -0.65445971 0 0
-0.085481651 -5.2393012 -0.6520161 0 0
-0.1115382 -5.2610078 -0.65329283 0 0
-0.13698199 -5.2829037 -0.65468621 0 0
-0.15399443 -5.2867742 -0.65357155 0 0
-0.17181771 -5.2902718 -0.65230942 0 0
-0.18176334 -5.2755213 -0.64843661 0 0
-0.21156561 -5.3061442 -0.65107083 0 0
-0.22551829 -5.3003612 -0.6484983 0 0
-0.25561735 -5.3307581 -0.65108371 0 0
-0.28185084 -5.3519735 -0.65235209 0 0
-0.30003941 -5.3550076 -0.65104061 0 0
-0.32238808 -5.3669944 -0.65099829 0 0
-0.34482911 -5.3788896 -0.65094221 0 0
-0.3590048 -5.3726969 -0.64834672 0 0
-0.38577867 -5.393414 -0.64953125 0 0
-0.41693124 -5.4229856 -0.65194494 0 0
-0.43550202 -5.4255323 -0.65058208 0 0
-0.45839557 -5.4369578 -0.65045869 0 0
-0.48569366 -5.4572234 -0.65156001 0 0
-0.508793 -5.4684443 -0.65140557 0 0
-0.53198117 -5.4795699 -0.65123814 0 0
-0.5464651 -5.4728022 -0.64861178 0 0
-0.56977534 -5.4837589 -0.64842868 0 0
-0.59317303 -5.4946184 -0.648233 0 0
-0.61218101 -5.4965205 -0.64681637 0 0
-0.62671733 -5.4895039 -0.64419341 0 0
-0.64123195 -5.4824405 -0.64157766 0 0
-0.66484213 -5.4929719 -0.64135665 0 0
-0.68395334 -5.4945974 -0.63993454 0 0
-0.69387257 -5.4785619 -0.63614148 0 0
-0.71763259 -5.4888477 -0.63590354 0 0
-0.73681188 -5.4902673 -0.63447893 0 0
-0.75133032 -5.4828591 -0.63188237 0 0
-0.77054536 -5.4841452 -0.63045806 0 0
-0.79928213 -5.5028081 -0.63135242 0 0
-0.82338345 -5.51263 -0.63107002 0 0
-0.85236573 -5.5310478 -0.63192719 0 0
-0.87183446 -5.5319672 -0.63047135 0 0
-0.90103555 -5.5501509 -0.63129646 0 0
-0.94012725 -5.5855141 -0.6343748 0 0
-0.96557057 -5.5943141 -0.63387185 0 0
-0.43493316 -4.6049643 -0.50178432 0 0
-0.4635736 -4.6003871 -0.49873534 0 0
-0.4753848 -4.5937362 -0.49665904 0 0
-0.48717603 -4.5870481 -0.49458897 0 0
-1.1452442 -5.6646175 -0.63217491 0 0
-1.1807564 -5.6900454 -0.63391995 0 0
-0.59954071 -4.6943746 -0.50477523 0 0
-0.60130483 -4.6703243 -0.5004912 0 0
-0.61333019 -4.6632514 -0.4983947 0 0
-0.62533379 -4.6561403 -0.49630496 0 0
-0.6314075 -4.6409411 -0.49326462 0 0
-1.4442817 -5.8106003 -0.63572854 0 0
-1.4651529 -5.8093891 -0.63410372 0 0
-1.4914435 -5.8164487 -0.63352489 0 0
-1.5178069 -5.8233957 -0.63293749 0 0
-1.5387937 -5.8219085 -0.63130432 0 0
-1.5707495 -5.8369489 -0.63173717 0 0
-1.5973277 -5.8435545 -0.63112479 0 0
-1.6129277 -5.8335009 -0.62845588 0 0
-1.6284971 -5.8233976 -0.62579596 0 0
-1.6607606 -5.8379636 -0.62619239 0 0
-1.6987438 -5.8606043 -0.62758344 0 0
-1.7200212 -5.8584433 -0.62592876 0 0
-1.7413173 -5.8561993 -0.62427503 0 0
-1.7739813 -5.8702178 -0.62461931 0 0
-1.8010634 -5.8759294 -0.62395352 0 0
-1.8339369 -5.8896637 -0.62427086 0 0
-1.8611774 -5.8951235 -0.6235866 0 0
-1.894259 -5.9085703 -0.62387705 0 0
-1.9265739 -5.9224777 -0.6243006 0 0
-1.9432952 -5.9107914 -0.62149239 0 0
-1.9707979 -5.9157767 -0.62078094 0 0
-2.0042377 -5.9286776 -0.62102842 0 0
-2.0554814 -5.9654803 -0.62414503 0 0
-2.0714548 -5.9540153 -0.62147975 0 0
-2.105231 -5.9664493 -0.6216839 0 0
-2.1331482 -5.9707613 -0.62092513 0 0
-2.1671216 -5.9828997 -0.62110537 0 0
-2.2012045 -5.9948797 -0.62127191 0 0
-2.217268 -5.982965 -0.61861402 0 0
-2.2514968 -5.9946823 -0.61876547 0 0
-2.279742 -5.9983644 -0.61797464 0 0
-2.2958157 -5.9862061 -0.61532849 0 0
-2.3241315 -5.9896765 -0.61453527 0 0
-2.3463423 -5.9852018 -0.61281979 0 0
-2.3809371 -5.9962454 -0.61293381 0 0
-2.4218473 -6.0149121 -0.61394483 0 0
-2.4504406 -6.0178475 -0.61312467 0 0
-2.4916067 -6.0361528 -0.61410344 0 0
-2.5203595 -6.0387988 -0.61326659 0 0
-2.5302522 -6.0181894 -0.60974348 0 0
-2.5726023 -6.0352983 -0.61054468 0 0
-2.6205571 -6.0605927 -0.61235833 0 0
-2.6550453 -6.0710797 -0.61252671 0 0
-2.6905372 -6.0806689 -0.61253798 0 0
-2.7261298 -6.0900912 -0.61253798 0 0
-2.7489288 -6.0841556 -0.61078441 0 0
-2.7717342 -6.0781274 -0.6090346 0 0
-2.8010347 -6.0795679 -0.60815364 0 0
-2.8369012 -6.0884166 -0.60812962 0 0
-2.8737745 -6.0963206 -0.60795039 0 0
-2.9163938 -6.1123242 -0.6087594 0 0
-2.9591548 -6.1281176 -0.60955101 0 0
-2.9822321 -6.1213264 -0.60778874 0 0
-3.0318313 -6.1441989 -0.60939986 0 0
-3.061657 -6.1445627 -0.60847139 0 0
-3.1048775 -6.1595936 -0.60921127 0 0
-3.1348403 -6.1596527 -0.60827208 0 0
-3.1581273 -6.1522212 -0.60650319 0 0
-3.1814151 -6.1446967 -0.60473961 0 0
-3.2047009 -6.1370797 -0.60298163 0 0
-3.2619233 -6.1658607 -0.60531628 0 0
-3.272619 -6.1425557 -0.60178149 0 0
-3.3164651 -6.156364 -0.60246164 0 0
-3.3545098 -6.1618619 -0.60217768 0 0
-3.3564098 -6.1328225 -0.59815353 0 0
-3.3935933 -6.1389289 -0.59801364 0 0
-3.4377799 -6.1520333 -0.59866357 0 0
-3.482096 -6.1649184 -0.59929913 0 0
-3.5056431 -6.156189 -0.59755111 0 0
-3.5501456 -6.1686983 -0.59816962 0 0
-3.5807557 -6.1668072 -0.59720814 0 0
-3.6184325 -6.1718493 -0.597027 0 0
-3.6561909 -6.1767106 -0.59683943 0 0
-3.6940267 -6.1813936 -0.59664583 0 0
-3.739037 -6.1929011 -0.59721655 0 0
-3.7699351 -6.190218 -0.5962407 0 0
-3.8222787 -6.2082839 -0.5975576 0 0
-3.8389935 -6.1913762 -0.59505242 0 0
-3.8771946 -6.1951742 -0.59483397 0 0
-3.9226687 -6.2056904 -0.59536535 0 0
-3.96104 -6.2091017 -0.5951336 0 0
-3.9994829 -6.2123318 -0.59489769 0 0
-4.0452623 -6.2222104 -0.59540224 0 0
-4.0620193 -6.2046165 -0.59292787 0 0
-4.0860271 -6.1937571 -0.59120679 0 0
-4.1182752 -6.188581 -0.59009397 0 0
-4.1496224 -6.184248 -0.58911991 0 0
-4.1892934 -6.1854949 -0.58874297 0 0
-4.2050152 -6.168458 -0.58645213 0 0
-4.2141986 -6.1436896 -0.5833168 0 0
-4.2381458 -6.1322236 -0.58164382 0 0
-4.2844234 -6.1405616 -0.58213347 0 0
-4.3382769 -6.1552763 -0.5833292 0 0
-4.3922753 -6.1697159 -0.58451122 0 0
-4.4389091 -6.17731 -0.58496958 0 0
-4.4705873 -6.171587 -0.58400732 0 0
-4.5551333 -6.2113605 -0.58797377 0 0
-4.6702542 -6.2766628 -0.59470791 0 0
-4.7099433 -6.2765718 -0.59440398 0 0
-4.7344728 -6.2633872 -0.59270912 0 0
-4.7437263 -6.2372446 -0.58963853 0 0
-4.8140612 -6.262342 -0.59210736 0 0
-4.8386068 -6.2487664 -0.59043133 0 0
-4.8785028 -6.2478118 -0.59013456 0 0
-4.9646926 -6.2846818 -0.59392643 0 0
-5.0975194 -6.3589602 -0.60175914 0 0
-5.1766496 -6.3884554 -0.60479504 0 0
-5.256021 -6.4175243 -0.60780489 0 0
-5.3278513 -6.4399185 -0.61011827 0 0
-5.3764758 -6.4432726 -0.61040711 0 0
-5.4408298 -6.4587731 -0.61202353 0 0
-5.5210218 -6.4862819 -0.61495256 0 0
-5.5788507 -6.4936724 -0.61574352 0 0
-5.6515789 -6.5142465 -0.61797529 0 0
-5.6692219 -6.4917312 -0.61560088 0 0
-5.7501202 -6.5177698 -0.61846781 0 0
-5.7836413 -6.5070558 -0.61740941 0 0
-5.8171659 -6.4961929 -0.61635923 0 0
-5.8427248 -6.4791732 -0.61467129 0 0
-5.9002032 -6.4859695 -0.61556977 0 0
-5.9177585 -6.4626899 -0.61325759 0 0
-5.9272175 -6.4334264 -0.61032528 0 0
-5.9848294 -6.4395952 -0.61123168 0 0
-6.010303 -6.4219379 -0.60959846 0 0
-6.0357432 -6.4041758 -0.60797811 0 0
-6.0611439 -6.3863111 -0.606372 0 0
-6.1270847 -6.3973889 -0.60791302 0 0
-6.1859932 -6.4009953 -0.60869783 0 0
-6.2032876 -6.3768339 -0.60649121 0 0
-6.2531829 -6.3755579 -0.60678267 0 0
-6.3349285 -6.3982329 -0.60966742 0 0
-6.4352078 -6.4290977 -0.61352414 0 0
-6.4854712 -6.4268146 -0.61379737 0 0
-6.4946027 -6.3961034 -0.61101663 0 0
-6.5449028 -6.3934369 -0.6113041 0 0
-6.6779857 -6.4463725 -0.6176641 0 0
-6.7368641 -6.4485078 -0.61854035 0 0
-6.8041372 -6.455874 -0.62001842 0 0
-6.8465652 -6.4463511 -0.61968881 0 0
-6.8973527 -6.4421101 -0.61996591 0 0
-7.0150504 -6.481287 -0.62501997 0 0
-7.057703 -6.4708948 -0.62469405 0 0
-7.1087661 -6.4657021 -0.62496853 0 0
-7.1010313 -6.4225688 -0.62111312 0 0
-7.1268077 -6.4009628 -0.6196447 0 0
-7.1281724 -6.3617568 -0.61631984 0 0
-7.2299023 -6.3877625 -0.62015492 0 0
-7.247148 -6.3604054 -0.6181429 0 0
-7.2897773 -6.3487544 -0.61789465 0 0
-7.3494244 -6.3473549 -0.61881483 0 0
-7.3835888 -6.3300333 -0.61800468 0 0
-7.5287004 -6.3798585 -0.62469161 0 0
-7.5972323 -6.3824911 -0.62618089 0 0
-7.6744328 -6.3898864 -0.62824255 0 0
-7.7260151 -6.3815637 -0.62858993 0 0
-7.7604361 -6.3628349 -0.6278075 0 0
-7.7948308 -6.343945 -0.62703985 0 0
-7.9068632 -6.37009 -0.63137388 0 0
-7.9759197 -6.3706279 -0.63287514 0 0
-7.9671264 -6.3260818 -0.62932193 0 0
-8.0805588 -6.3491693 -0.63354081 0 0
-8.0455341 -6.289721 -0.62835407 0 0
-8.1234159 -6.2940807 -0.63044882 0 0
-8.2973433 -6.3515015 -0.63865304 0 0
-8.2882624 -6.3063688 -0.63519335 0 0
-8.2614994 -6.2517276 -0.63066071 0 0
-8.2958517 -6.230772 -0.63002098 0 0
-8.3652859 -6.2286839 -0.63159567 0 0
-8.3380661 -6.1742001 -0.62714887 0 0
-8.3282251 -6.1293383 -0.62383223 0 0
-8.3976078 -6.1266637 -0.62545091 0 0
-8.4052086 -6.0910769 -0.62327081 0 0
-8.4923468 -6.0970898 -0.6259948 0 0
-8.5707483 -6.0980296 -0.62817919 0 0
-8.6670103 -6.1076751 -0.631446 0 0
-8.6842947 -6.0741463 -0.62978256 0 0
-8.6916599 -6.0378175 -0.62769425 0 0
-8.7167463 -6.0104618 -0.62670195 0 0
-8.7775002 -6.0008402 -0.62786692 0 0
-8.8472385 -5.9953289 -0.62957537 0 0
-8.8811951 -5.9718204 -0.62916601 0 0
-7.1918445 -5.1076746 -0.52694666 0 0
-7.2231545 -5.0890789 -0.52680486 0 0
-8.9737835 -5.8960238 -0.62752271 0 0
-8.8723164 -5.8074727 -0.61928755 0 0
-8.896801 -5.7793431 -0.61846519 0 0
-8.9121714 -5.7468667 -0.61713982 0 0
-8.9093332 -5.7059183 -0.61479115 0 0
-8.933548 -5.6775875 -0.61403692 0 0
-9.0030813 -5.6699495 -0.61591095 0 0
-9.9000444 -6.0378385 -0.6651426 28 0
-10.034555 -6.055655 -0.67058116 28 0
-10.050759 -6.0197172 -0.66928208 28 0
-10.213828 -6.0464711 -0.67621446 28 0
-10.175146 -5.9858775 -0.67185551 28 0
-10.2186 -5.9614811 -0.67217201 28 0
-10.252846 -5.932909 -0.67199492 28 0
-10.241135 -5.8844986 -0.6692729 28 0
-10.220051 -5.8322968 -0.66606909 28 0
-10.38281 -5.8578625 -0.67313439 28 0
-10.481336 -5.8555212 -0.67662233 28 0
-10.533825 -5.8335133 -0.67757118 28 0
-10.650093 -5.8398972 -0.68216479 28 0
-10.675737 -5.8037462 -0.68156463 28 0
-10.681902 -5.7621078 -0.68003303 28 0
-10.6972 -5.7241926 -0.6790368 28 0
-10.730949 -5.6935935 -0.67908067 28 0
-10.727448 -5.6482177 -0.67712563 28 0
-10.779619 -5.6246648 -0.6782304 28 0
-10.869027 -5.6152358 -0.68137425 28 0
-10.902529 -5.5838847 -0.68151277 28 0
-10.917277 -5.5452938 -0.68067032 28 0
-10.92256 -5.5031404 -0.67935228 28 0
-11.002579 -5.4888816 -0.68207812 28 0
-11.026407 -5.4534378 -0.68181521 28 0
-11.115799 -5.4418921 -0.68508446 28 0
-11.148895 -5.4094458 -0.68537086 28 0
-11.18191 -5.3768435 -0.68568313 28 0
-4.7961159 -3.0645227 -0.34551823 0 0
-4.7561088 -3.0279095 -0.34270298 0 0
-4.7725301 -3.0112705 -0.34289646 0 0
-4.7605853 -2.9847841 -0.34160921 0 0
-4.7674422 -2.9648471 -0.34133288 0 0
-4.7553163 -2.9384892 -0.34007591 0 0
-4.7430892 -2.9122267 -0.3388344 0 0
-4.7497249 -2.8923404 -0.33860123 0 0
-4.7657886 -2.8755481 -0.3388781 0 0
-4.7821722 -2.8575664 -0.3391571 0 0
-4.7886395 -2.8375604 -0.3389658 0 0
-4.8045635 -2.8205609 -0.33928376 0 0
-4.8105655 -2.8016031 -0.33912894 0 0
-4.8263974 -2.7844789 -0.33947349 0 0
-4.8329849 -2.7632189 -0.33932957 0 0
-4.8678269 -2.7517855 -0.34069109 0 0
-4.902318 -2.7412896 -0.3420715 0 0
-11.58068 -4.7066903 -0.68643606 28 0
-11.611895 -4.6716642 -0.68726337 28 0
-11.700554 -4.6532431 -0.69108266 28 0
-11.789225 -4.6343155 -0.694929 28 0
-11.887507 -4.6176229 -0.69929659 28 0
-11.985811 -4.600368 -0.70369202 28 0
-12.055269 -4.5745211 -0.70663434 28 0
-12.086171 -4.5377045 -0.70763034 28 0
-12.088059 -4.4928808 -0.707174 28 0
-12.089801 -4.4480834 -0.70674658 28 0
-12.139671 -4.4160995 -0.70881802 28 0
-12.150824 -4.3737335 -0.70894289 28 0
-12.190856 -4.338829 -0.71057922 28 0
-12.230804 -4.3037195 -0.71224511 28 0
-12.251296 -4.2635136 -0.71295255 28 0
-12.310439 -4.2328658 -0.71566796 28 0
-12.321028 -4.1899772 -0.71594042 28 0
-12.331485 -4.1470599 -0.71624196 28 0
-12.351523 -4.1064305 -0.7170682 28 0
-12.371444 -4.0657139 -0.71792436 28 0
-12.37179 -4.0203757 -0.7178188 28 0
-12.392009 -3.9771416 -0.71875829 28 0
-12.392068 -3.9318056 -0.71871239 28 0
-12.411479 -3.8908467 -0.71968842 28 0
-12.430771 -3.8497965 -0.72069448 28 0
-12.429901 -3.806833 -0.72070539 28 0
-12.448946 -3.7656684 -0.72176945 28 0
-12.477646 -3.7264779 -0.72336167 28 0
-12.486677 -3.6830831 -0.72398776 28 0
-12.505362 -3.6416624 -0.72514212 28 0
-12.533714 -3.6021223 -0.72682625 28 0
-12.532564 -3.5566201 -0.72704214 28 0
-12.561152 -3.5144536 -0.72882956 28 0
-12.579339 -3.4726872 -0.73010737 28 0
-12.617034 -3.434526 -0.73241901 28 0
