# .PCD v0.7 - Point Cloud Data file format
VERSION 0.7
FIELDS x y z label object
SIZE 4 4 4 4 4
TYPE F F F I I
COUNT 1 1 1 1 1
WIDTH 1283
HEIGHT 1
VIEWPOINT 0 0 0 1 0 0 0
POINTS 1283
DATA ascii
4.1465049 0.2495349 -0.88309914 28 0
4.1408925 0.23817612 -0.88001961 28 0
4.1439848 0.23042099 -0.88021564 28 0
4.1470532 0.22265504 -0.88040614 28 0
4.1588717 0.21837816 -0.88387513 28 0
4.1619039 0.21056555 -0.88405532 28 0
4.1561151 0.19930425 -0.88094467 28 0
4.1590881 0.19150069 -0.88111311 28 0
4.1708555 0.18707009 -0.88456255 28 0
4.1737914 0.17922035 -0.88472056 28 0
4.1680236 0.1676034 -0.88159364 28 0
4.1708989 0.1597643 -0.88173974 28 0
4.1737509 0.151915 -0.88188028 28 0
4.176578 0.14405815 -0.88201529 28 0
4.1793814 0.13619275 -0.88214475 28 0
4.1821604 0.12831855 -0.88226873 28 0
4.184916 0.12043451 -0.88238716 28 0
4.1876464 0.11254335 -0.88249999 28 0
4.1903534 0.10464364 -0.88260746 28 0
4.2019696 0.099791899 -0.88600111 28 0
4.186749 0.085792713 -0.87951326 28 0
4.1983271 0.080893666 -0.88289624 28 0
4.2009368 0.072961152 -0.88298148 28 0
4.1946907 0.061642531 -0.87977225 28 0
4.206224 0.056629878 -0.88313925 28 0
4.1997657 0.045796141 -0.87991387 28 0
4.2112699 0.0407071 -0.88327032 28 0
4.1957321 0.027100004 -0.8767392 28 0
4.2071962 0.021967266 -0.88008481 28 0
4.2096238 0.014009607 -0.88013077 28 0
4.2120275 0.006043165 -0.88017118 28 0
4.2234545 0.00076863763 -0.88350093 28 0
4.2258177 -0.007241 -0.88353038 28 0
4.2190909 -0.017896097 -0.88025934 28 0
4.2215242 -0.026334926 -0.88027859 28 0
4.2238035 -0.034336559 -0.88029104 28 0
4.2351503 -0.039799858 -0.88359326 28 0
4.2373891 -0.047845274 -0.88359469 28 0
4.2304945 -0.058384057 -0.88029546 28 0
4.232676 -0.066412933 -0.88028592 28 0
4.2348328 -0.074449964 -0.88027078 28 0
4.2460971 -0.080095999 -0.88354516 28 0
4.2482119 -0.08817476 -0.88351893 28 0
4.23212 -0.10137813 -0.87689567 28 0
4.252481 -0.10480182 -0.88344753 28 0
4.2545204 -0.11290148 -0.88340431 28 0
4.2473631 -0.12324926 -0.88006133 28 0
4.2677026 -0.12690341 -0.88659543 28 0
4.260488 -0.13723309 -0.88324147 28 0
4.2532339 -0.14750808 -0.87988257 28 0
4.2643418 -0.15348539 -0.88310528 28 0
4.2662311 -0.16161965 -0.88302881 28 0
4.2773104 -0.16769816 -0.88623965 28 0
4.2699351 -0.17790502 -0.88285935 28 0
4.2625213 -0.18805805 -0.87947416 28 0
4.2736378 -0.19466794 -0.88266206 28 0
4.2754006 -0.20283018 -0.88255763 28 0
4.2772341 -0.21145204 -0.8824414 28 0
4.278851 -0.21917045 -0.88233227 28 0
4.2805386 -0.22734985 -0.88221115 28 0
4.2822008 -0.23553281 -0.88208467 28 0
4.2838378 -0.24372077 -0.88195252 28 0
4.28545 -0.25191373 -0.88181496 28 0
4.2870369 -0.26011288 -0.88167179 28 0
4.2885985 -0.26831523 -0.88152313 28 0
4.2902198 -0.27697891 -0.88136023 28 0
4.2824268 -0.28682116 -0.87791395 28 0
4.2932143 -0.29340726 -0.88103467 28 0
4.294673 -0.30162805 -0.88086355 28 0
4.2961073 -0.3098546 -0.880687 28 0
4.2975163 -0.31808403 -0.88050491 28 0
4.2988992 -0.32631773 -0.88031733 28 0
4.3002577 -0.33455542 -0.88012421 28 0
4.2922506 -0.34421375 -0.87664407 28 0
4.3028979 -0.351044 -0.87972146 28 0
4.3042502 -0.35975233 -0.87949997 28 0
4.3148599 -0.36668459 -0.88256371 28 0
4.306735 -0.37626299 -0.87906361 28 0
4.3079395 -0.3845236 -0.87883717 28 0
4.3184862 -0.39156038 -0.88188177 28 0
4.3290162 -0.39866108 -0.88491911 28 0
4.3207769 -0.40816092 -0.88139963 28 0
4.3125033 -0.41760209 -0.8778764 28 0
4.3135805 -0.42588097 -0.87762249 28 0
4.3240209 -0.4330872 -0.88063502 28 0
4.3344431 -0.44035828 -0.88364005 28 0
4.3354511 -0.44870675 -0.88336766 28 0
4.3270879 -0.45850223 -0.87980539 28 0
4.3280401 -0.46682689 -0.87952268 28 0
4.3289661 -0.47515285 -0.87923449 28 0
4.3392773 -0.48259452 -0.8822065 28 0
4.3307419 -0.49181256 -0.87864172 28 0
4.3410082 -0.49932265 -0.88160044 28 0
4.3324156 -0.50848347 -0.87802702 28 0
4.3332138 -0.51682162 -0.87771147 28 0
4.3434539 -0.52489591 -0.88063216 28 0
4.344202 -0.53326964 -0.88030416 28 0
4.3449244 -0.54164547 -0.87997061 28 0
4.3456206 -0.55002451 -0.87963158 28 0
4.3368554 -0.55900991 -0.87603229 28 0
4.3374982 -0.56736028 -0.87568361 28 0
4.3475556 -0.57516849 -0.87858164 28 0
4.3575921 -0.5830422 -0.88147157 28 0
4.3487167 -0.591941 -0.87785435 28 0
4.3492584 -0.60032874 -0.87748253 28 0
4.3497744 -0.60871786 -0.87710524 28 0
4.3691926 -0.6168018 -0.88319141 28 0
4.3507538 -0.62596667 -0.87631249 28 0
4.3606453 -0.63403672 -0.87916076 28 0
4.3610578 -0.6424616 -0.87875992 28 0
4.3614445 -0.65088767 -0.87835354 28 0
4.361805 -0.65931451 -0.87794173 28 0
4.3621402 -0.66774368 -0.87752444 28 0
4.3719096 -0.67600316 -0.8803364 28 0
4.3721938 -0.68446326 -0.87990671 28 0
4.3630023 -0.69349927 -0.8762157 28 0
4.3632321 -0.70192957 -0.87577641 28 0
4.3823647 -0.71027607 -0.8817879 28 0
4.3730783 -0.71878058 -0.87810785 28 0
4.3732381 -0.72771323 -0.87762493 28 0
4.3733625 -0.73617542 -0.87716192 28 0
4.3734469 -0.74322736 -0.87677193 28 0
4.3735199 -0.75122011 -0.87632531 28 0
4.3830438 -0.76076519 -0.87901181 28 0
4.3830676 -0.76973057 -0.87849873 28 0
4.3830633 -0.77822363 -0.87800705 28 0
4.3735657 -0.786479 -0.87429744 28 0
4.3829722 -0.7956804 -0.87697935 28 0
4.392355 -0.80447376 -0.87967974 28 0
4.3922372 -0.81346935 -0.87913543 28 0
4.4015727 -0.82188112 -0.88184822 28 0
4.3919439 -0.83003807 -0.87811685 28 0
4.3822899 -0.83813208 -0.87438405 28 0
4.3820624 -0.8470912 -0.87381887 28 0
4.4007449 -0.85655779 -0.87967187 28 0
4.4004741 -0.86510545 -0.87912154 28 0
4.3812561 -0.87254763 -0.87217987 28 0
4.3903942 -0.88161385 -0.87481368 28 0
4.3995037 -0.89074093 -0.87743807 28 0
4.3896708 -0.89863783 -0.87367928 28 0
4.398725 -0.90782392 -0.87628865 28 0
4.4077501 -0.91707051 -0.87888843 28 0
4.3978415 -0.92490035 -0.87511772 28 0
4.3973327 -0.93391007 -0.87449116 28 0
4.4062715 -0.94324613 -0.8770678 28 0
4.4057345 -0.95180869 -0.87646109 28 0
4.4051704 -0.96036917 -0.87584895 28 0
4.4140224 -0.96982294 -0.87840068 28 0
4.4039636 -0.97748363 -0.87460858 28 0
4.4033208 -0.98603737 -0.87398028 28 0
4.4026518 -0.99458873 -0.87334675 28 0
4.4113884 -1.0041572 -0.8758679 28 0
4.4106636 -1.0127342 -0.87522125 28 0
4.4099126 -1.0213088 -0.8745693 28 0
4.7495775 -1.0969998 -0.87257892 28 0
4.7485652 -1.106613 -0.87181258 28 0
4.7570381 -1.1174948 -0.87384415 28 0
4.7464528 -1.1258281 -0.87026209 28 0
4.7453518 -1.1354301 -0.86947787 28 0
4.7537246 -1.1463933 -0.87148392 28 0
4.7525606 -1.1560181 -0.87068528 28 0
4.7513676 -1.1656392 -0.86988068 28 0
4.7501445 -1.1752557 -0.86907017 28 0
4.7678671 -1.1878462 -0.87382531 28 0
4.7665763 -1.1975157 -0.8729977 28 0
4.7747355 -1.2087319 -0.87494457 28 0
4.7639055 -1.2168413 -0.87132448 28 0
4.7625251 -1.2264969 -0.87047893 28 0
4.7800479 -1.239435 -0.87517232 28 0
4.7880607 -1.2508171 -0.87707913 28 0
4.7676625 -1.25714 -0.87067378 28 0
4.7756109 -1.2685428 -0.87256598 28 0
4.7740722 -1.278235 -0.87168527 28 0
4.7725034 -1.2879217 -0.87079871 28 0
4.7803421 -1.2994316 -0.87266189 28 0
4.7787085 -1.3091381 -0.87176061 28 0
4.7676177 -1.3169492 -0.8681035 28 0
4.7847724 -1.3304548 -0.8726874 28 0
4.7830439 -1.3401749 -0.87176561 28 0
4.7812848 -1.3498889 -0.87083775 28 0
4.7889009 -1.3616095 -0.8726424 28 0
4.787076 -1.3713423 -0.87169987 28 0
4.7852211 -1.3810686 -0.87075132 28 0
4.7927241 -1.3928927 -0.87252635 28 0
4.790803 -1.4026368 -0.87156314 28 0
4.7888522 -1.4123744 -0.87059397 28 0
4.7868714 -1.4221053 -0.86961901 28 0
4.7848601 -1.4318293 -0.8686381 28 0
4.7921758 -1.4438035 -0.87036544 28 0
4.7900982 -1.4535444 -0.8693698 28 0
4.7879906 -1.4632782 -0.86836821 28 0
4.8045263 -1.4777009 -0.87277013 28 0
4.793015 -1.4851023 -0.86904907 28 0
4.7908106 -1.4948449 -0.86802679 28 0
4.7978921 -1.5070189 -0.86969388 28 0
4.7956204 -1.5167764 -0.86865669 28 0
4.7933183 -1.5265263 -0.86761373 28 0
4.8002806 -1.5387987 -0.8692503 28 0
4.8071985 -1.5511234 -0.87087452 28 0
4.8047915 -1.5609102 -0.86980754 28 0
4.8023543 -1.5706888 -0.86873472 28 0
4.8091516 -1.5831101 -0.87032831 28 0
4.8065062 -1.5934461 -0.8691799 28 0
4.8039689 -1.6032295 -0.86808598 28 0
4.8014016 -1.6130041 -0.86698622 28 0
4.8172693 -1.6283164 -0.87119764 28 0
4.8146253 -1.638134 -0.87007946 28 0
4.8119507 -1.6479424 -0.86895549 28 0
4.8276625 -1.6634681 -0.8731221 28 0
4.8341107 -1.6762116 -0.87462425 28 0
4.8221288 -1.6831597 -0.87083131 28 0
4.8284988 -1.6959445 -0.87231487 28 0
4.8256474 -1.7057968 -0.87115151 28 0
4.8319306 -1.7186522 -0.87261289 28 0
4.8290095 -1.7285153 -0.87143439 28 0
4.8352056 -1.7414405 -0.87287349 28 0
4.8322139 -1.7513136 -0.87167978 28 0
4.8200631 -1.7580451 -0.86786407 28 0
4.8261404 -1.7710295 -0.86927515 28 0
4.8321686 -1.7840633 -0.87067312 28 0
4.8199444 -1.7907048 -0.8668474 28 0
4.8258929 -1.8037771 -0.86822653 28 0
4.8225322 -1.8141649 -0.86692607 28 0
4.8193169 -1.8239945 -0.86568815 28 0
4.8340139 -1.8410435 -0.86955535 28 0
4.8216639 -1.8475386 -0.86571187 28 0
4.8366165 -1.8636181 -0.86968833 28 0
4.8242168 -1.8700641 -0.86583734 28 0
4.8208294 -1.8798983 -0.86456329 28 0
4.8354368 -1.8966961 -0.86842626 28 0
4.8319678 -1.9065663 -0.86713326 28 0
4.8374605 -1.9199709 -0.86839825 28 0
4.8249388 -1.9262717 -0.86453021 28 0
4.8303499 -1.9397117 -0.86577606 28 0
4.8267484 -1.9495643 -0.86445647 28 0
4.8320661 -1.9630678 -0.8656792 28 0
4.828393 -1.9729253 -0.86434442 28 0
4.8336172 -1.9864918 -0.86554402 28 0
4.8298721 -1.9963542 -0.86419392 28 0
4.8260965 -2.0062039 -0.86283815 28 0
4.8400793 -2.0236571 -0.8665331 28 0
4.8451037 -2.0373764 -0.86768234 28 0
4.8412027 -2.0472751 -0.8662976 28 0
4.8284111 -2.0532663 -0.86239117 28 0
4.8330879 -2.0675819 -0.86343366 28 0
4.8379302 -2.0813944 -0.86453944 28 0
4.8515425 -2.0992334 -0.86813492 28 0
4.8386393 -2.1051407 -0.86421019 28 0
4.8433304 -2.1190567 -0.8652786 28 0
4.8479671 -2.1330163 -0.86633313 28 0
4.8437724 -2.1429224 -0.86488676 28 0
4.8483114 -2.15694 -0.86591768 28 0
4.8527951 -2.1710007 -0.86693454 28 0
4.848484 -2.1809218 -0.86546302 28 0
4.8441415 -2.1908288 -0.8639859 28 0
3.2449365 -1.4249799 -0.41124564 0 0
3.2341409 -1.4254088 -0.40807652 0 0
3.2581143 -1.4429564 -0.41474268 0 0
3.2472894 -1.4433713 -0.41156831 0 0
3.2624674 -1.456779 -0.41574609 0 0
3.2516263 -1.4571514 -0.41257074 0 0
3.2580721 -1.4662771 -0.41428155 0 0
3.2472277 -1.466579 -0.41110963 0 0
3.2450066 -1.4712819 -0.41037512 0 0
3.2341726 -1.471485 -0.4072111 0 0
4.8410859 -2.3358557 -0.86034018 28 0
4.8704977 -2.3640401 -0.86841995 28 0
4.8482337 -2.3653586 -0.86191499 28 0
4.860384 -2.3845277 -0.86512893 28 0
4.8554163 -2.3944702 -0.86351961 28 0
4.8674216 -2.4137728 -0.8666957 28 0
4.8538771 -2.4190214 -0.86267537 28 0
4.8572769 -2.4336858 -0.86343157 28 0
4.8606176 -2.4483881 -0.86417317 28 0
4.8638992 -2.463129 -0.86490029 28 0
4.8586903 -2.4730814 -0.86323994 28 0
4.8534508 -2.483017 -0.86157423 28 0
4.8565822 -2.4978158 -0.86226672 28 0
4.8596535 -2.5126522 -0.86294454 28 0
4.8794103 -2.5373962 -0.86831629 28 0
4.8572578 -2.537473 -0.86190635 28 0
4.8518205 -2.5474029 -0.86019969 28 0
4.8546801 -2.5623319 -0.86082804 28 0
4.8574786 -2.5772965 -0.86144155 28 0
4.8519192 -2.5872266 -0.8597095 28 0
4.8711762 -2.612432 -0.8649506 28 0
4.8655086 -2.6224058 -0.86319345 28 0
4.8680625 -2.6375129 -0.86374784 28 0
4.8623176 -2.6474764 -0.86197519 28 0
4.8729844 -2.6678317 -0.86481172 28 0
4.8753524 -2.6830428 -0.86532128 28 0
4.8691406 -2.693584 -0.86341798 28 0
4.871397 -2.7088368 -0.86390191 28 0
4.8654332 -2.7188106 -0.8620832 28 0
4.8594389 -2.7287648 -0.86025912 28 0
4.8696637 -2.7494311 -0.86298555 28 0
4.8716846 -2.764791 -0.86341423 28 0
4.873642 -2.7801838 -0.86382776 28 0
4.875536 -2.7956085 -0.86422628 28 0
4.8693061 -2.8055949 -0.8623513 28 0
4.8630452 -2.8155603 -0.86047107 28 0
4.872808 -2.8365524 -0.86308235 28 0
4.8664517 -2.8465295 -0.86118174 28 0
4.8440776 -2.8453348 -0.85479891 28 0
4.8137612 -2.8384137 -0.84619731 28 0
4.799437 -2.8425715 -0.84207755 28 0
4.7930589 -2.8523095 -0.84018612 28 0
4.7628717 -2.8449898 -0.83163434 28 0
4.7327566 -2.8374953 -0.82310784 28 0
4.7106075 -2.8355558 -0.81681496 28 0
4.6884975 -2.833493 -0.81053746 28 0
4.6742849 -2.8370883 -0.80647349 28 0
4.6443977 -2.8289988 -0.79802877 28 0
4.637701 -2.8387451 -0.79607046 28 0
4.600111 -2.8245199 -0.78548026 28 0
4.5782065 -2.8218408 -0.77928126 28 0
4.5641141 -2.8249493 -0.7752704 28 0
4.5345268 -2.8161173 -0.76693106 28 0
4.5204849 -2.8190336 -0.76294196 28 0
4.5064516 -2.8218794 -0.7589587 28 0
4.4924269 -2.8246541 -0.75498128 28 0
4.4630532 -2.8152878 -0.74671727 28 0
4.4414225 -2.8118117 -0.74062127 28 0
4.435123 -2.8203857 -0.73881346 28 0
4.413548 -2.8167191 -0.7327401 28 0
4.3920207 -2.8129332 -0.72668356 28 0
4.3781285 -2.8151872 -0.72276384 28 0
4.3566785 -2.8111875 -0.71673572 28 0
4.3428268 -2.8132775 -0.712834 28 0
4.3440499 -2.8277638 -0.71314692 28 0
4.3452096 -2.842279 -0.71344501 28 0
4.3384562 -2.8509979 -0.71153414 28 0
4.3395052 -2.8655446 -0.71180737 28 0
4.3255816 -2.8674552 -0.707901 28 0
4.3265419 -2.8820081 -0.70815533 28 0
4.3348541 -2.9029684 -0.71046627 28 0
4.3356671 -2.9175999 -0.71068543 28 0
4.3290377 -2.9258294 -0.70882875 28 0
4.3297415 -2.9404895 -0.70902354 28 0
4.3157029 -2.9422243 -0.70510334 28 0
4.3089972 -2.9503884 -0.70323455 28 0
4.309566 -2.9650552 -0.70340079 28 0
4.2955103 -2.9666522 -0.69948494 28 0
4.3032489 -2.9878929 -0.70166028 28 0
4.3036432 -3.0026114 -0.70178705 28 0
4.311192 -3.0239723 -0.70391589 28 0
4.2970352 -3.0254807 -0.69998407 28 0
4.3044333 -3.0469134 -0.70207745 28 0
4.2974062 -3.0550413 -0.70014369 28 0
4.2974935 -3.0698571 -0.70020097 28 0
4.2903953 -3.0779624 -0.69825387 28 0
4.2903709 -3.0928016 -0.69828653 28 0
4.2902808 -3.1076636 -0.69830412 28 0
4.2830658 -3.1157453 -0.69633406 28 0
4.2758265 -3.1238034 -0.6943602 28 0
4.2751732 -3.1391339 -0.69423342 28 0
4.2888465 -3.1677861 -0.69811213 28 0
4.2814474 -3.1758626 -0.69610393 28 0
4.2879305 -3.1977525 -0.69798005 28 0
4.2665734 -3.1919434 -0.69207591 28 0
4.259099 -3.1999481 -0.69005626 28 0
4.2584901 -3.2149136 -0.68995976 28 0
4.2646837 -3.2369089 -0.6917696 28 0
4.257071 -3.2449067 -0.68972147 28 0
4.2562609 -3.259933 -0.68957961 28 0
4.2621884 -3.2820537 -0.69132674 28 0
4.2612214 -3.2971411 -0.69114864 28 0
4.2466607 -3.2980082 -0.68716991 28 0
4.2456012 -3.3130889 -0.68697292 28 0
4.2377539 -3.3210247 -0.68487948 28 0
4.2298818 -3.3289351 -0.68278235 28 0
4.2286611 -3.3440268 -0.68255121 28 0
4.2273726 -3.3591361 -0.68230492 28 0
4.2260151 -3.3742623 -0.68204325 28 0
4.2311997 -3.3966773 -0.68361866 28 0
4.2160578 -3.3977103 -0.6795091 28 0
4.2145143 -3.4128654 -0.67920703 28 0
4.2129021 -3.4280369 -0.67888969 28 0
4.2112212 -3.4432249 -0.67855716 28 0
4.2159696 -3.4658074 -0.6800319 28 0
4.214128 -3.4810472 -0.67966282 28 0
4.2122173 -3.4963021 -0.67927855 28 0
4.2230992 -3.5264564 -0.68248886 28 0
4.2081881 -3.5268562 -0.678464 28 0
4.2060685 -3.5421541 -0.67803365 28 0
4.2038798 -3.5574665 -0.67758805 28 0
4.1952806 -3.5652668 -0.67534578 28 0
4.1924934 -3.5810175 -0.67475021 28 0
4.1838217 -3.5887814 -0.67249501 28 0
4.1939368 -3.6192801 -0.67552561 28 0
4.1851473 -3.6270485 -0.67324561 28 0
4.1887827 -3.6500454 -0.67446452 28 0
4.1861 -3.6654456 -0.67391092 28 0
4.1709905 -3.6655202 -0.66986364 28 0
4.1743679 -3.688592 -0.6710245 28 0
4.1837587 -3.7194231 -0.67388511 28 0
4.1746616 -3.7271585 -0.67154288 28 0
4.1716251 -3.7426131 -0.67091244 28 0
4.1685176 -3.7580776 -0.67026663 28 0
4.1653385 -3.7735517 -0.66960531 28 0
4.1560745 -3.7812278 -0.6672318 28 0
4.1587667 -3.8045275 -0.66823679 28 0
4.1494079 -3.8121827 -0.66584462 28 0
4.1400247 -3.8198071 -0.66344923 28 0
4.1424546 -3.8431714 -0.66439587 28 0
4.1388712 -3.8586776 -0.66364849 28 0
4.1352153 -3.8741918 -0.66288555 28 0
4.1314878 -3.8897126 -0.66210735 28 0
4.1218662 -3.8972795 -0.65966564 28 0
4.1180186 -3.9127953 -0.65886277 28 0
4.108326 -3.9203186 -0.65640861 28 0
4.1216078 -3.9598818 -0.66047055 28 0
4.1232209 -3.9834898 -0.66123289 28 0
4.1127601 -3.9914479 -0.65859365 28 0
4.1085005 -4.0070291 -0.65770108 28 0
4.1036119 -4.0230312 -0.65665323 28 0
4.0992041 -4.0386205 -0.65572929 28 0
4.0952859 -4.0537992 -0.65493119 28 0
4.0963125 -4.0775452 -0.65556341 28 0
4.0972166 -4.1013303 -0.65616775 28 0
4.0869446 -4.1087871 -0.65359682 28 0
4.0821509 -4.1244121 -0.65259051 28 0
4.0772839 -4.1400399 -0.65156871 28 0
4.0668921 -4.1474323 -0.64897656 28 0
4.0781856 -4.1878114 -0.65257698 28 0
4.0676465 -4.1952071 -0.64995408 28 0
4.073216 -4.2274394 -0.65193748 28 0
4.0572038 -4.2265115 -0.64775997 28 0
4.0571985 -4.2504892 -0.64816374 28 0
4.0517678 -4.26616 -0.64702213 28 0
4.0462632 -4.2818298 -0.64586502 28 0
4.0511861 -4.3142529 -0.64770287 28 0
4.0402589 -4.3215618 -0.64500397 28 0
4.0338964 -4.3376498 -0.64364409 28 0
4.028069 -4.353332 -0.6424191 28 0
4.0221672 -4.3690109 -0.64117867 28 0
4.0161915 -4.3846889 -0.6399231 28 0
4.0152369 -4.4088416 -0.64011902 28 0
4.0141568 -4.4330258 -0.64028698 28 0
4.0179939 -4.4657507 -0.64188105 28 0
4.0066004 -4.4729533 -0.63909119 28 0
4.0001755 -4.4886632 -0.63774014 28 0
3.9936767 -4.5043688 -0.63637388 28 0
3.9920428 -4.5286465 -0.63642108 28 0
3.9902823 -4.5529509 -0.63644034 28 0
3.9835069 -4.5686727 -0.63501555 28 0
3.9815185 -4.5930138 -0.63498521 28 0
3.979403 -4.6173797 -0.63492692 28 0
3.9675424 -4.6244583 -0.632047 28 0
3.9652247 -4.6488419 -0.63194555 28 0
3.9627788 -4.6732497 -0.63181609 28 0
3.955476 -4.6889782 -0.63028103 28 0
3.9433949 -4.6959801 -0.62735957 28 0
3.9406447 -4.7204094 -0.62716544 28 0
3.9331167 -4.7361121 -0.6255849 28 0
3.9340754 -4.7697191 -0.62652838 28 0
3.9263406 -4.7854319 -0.62490422 28 0
3.9230993 -4.8099294 -0.62460381 28 0
3.9197288 -4.834446 -0.62427545 28 0
3.9162292 -4.8589821 -0.62391907 28 0
3.921576 -4.9012127 -0.62617356 28 0
3.9088428 -4.9081073 -0.62312245 28 0
3.9005215 -4.9238276 -0.62137562 28 0
3.8958168 -4.9487982 -0.62074304 28 0
3.8916929 -4.9734035 -0.62025255 28 0
3.8925149 -5.0065575 -0.62119377 28 0
3.8881083 -5.031208 -0.62064165 28 0
3.8749757 -5.0379953 -0.61751354 28 0
3.8703628 -5.0626459 -0.6169185 28 0
3.8571324 -5.069376 -0.61377335 28 0
3.8607466 -5.1119857 -0.61564499 28 0
3.8515532 -5.1276789 -0.61371809 28 0
3.8464458 -5.1523652 -0.6130181 28 0
3.8494759 -5.1951046 -0.61476058 28 0
3.8481581 -5.2288728 -0.61522043 28 0
3.8344173 -5.2355332 -0.61197287 28 0
3.8247068 -5.2512102 -0.60993922 28 0
3.818944 -5.2759442 -0.60909992 28 0
3.8170459 -5.309773 -0.60943532 28 0
3.8228979 -5.3618369 -0.61212212 28 0
3.8126886 -5.3775301 -0.60998362 28 0
3.8024037 -5.3932037 -0.60783041 28 0
3.7998121 -5.4271355 -0.60801548 28 0
3.7970328 -5.4610968 -0.60815978 28 0
3.786407 -5.4767585 -0.60593629 28 0
3.7795062 -5.5015755 -0.60485506 28 0
3.7762468 -5.535584 -0.60489649 28 0
3.7690532 -5.5604177 -0.60375327 28 0
3.7617269 -5.5852528 -0.60258234 28 0
3.7534399 -5.6104436 -0.60119069 28 0
3.7495034 -5.6445174 -0.60108733 28 0
3.7425847 -5.6690111 -0.60002106 28 0
3.7383034 -5.7031198 -0.59984386 28 0
3.7302568 -5.7279768 -0.59852153 28 0
3.7256248 -5.762116 -0.59826958 28 0
3.720803 -5.7962756 -0.59797686 28 0
3.7053175 -5.8025308 -0.59438926 28 0
3.6889498 -5.8090796 -0.59060085 28 0
3.6768565 -5.8245635 -0.58808196 28 0
3.6612823 -5.830677 -0.5844841 28 0
3.6423132 -5.8273878 -0.57982707 28 0
3.6468129 -5.889576 -0.5825423 28 0
3.6409943 -5.9237189 -0.58204281 28 0
3.6349852 -5.9578772 -0.58150285 28 0
3.6059558 -5.9262705 -0.57370055 28 0
3.5997653 -5.9603786 -0.5731256 28 0
3.5965879 -6.0039172 -0.57352871 28 0
3.5709352 -5.9814897 -0.56679469 28 0
3.5800478 -6.0627737 -0.57115805 28 0
3.5949163 -6.1630678 -0.57741243 28 0
3.5813901 -6.178381 -0.57460487 28 0
3.5677876 -6.1936603 -0.57178336 28 0
3.5632014 -6.2373433 -0.57188463 28 0
3.5523617 -6.2620745 -0.56998771 28 0
3.5443609 -6.296289 -0.56902951 28 0
3.5214477 -6.2829647 -0.5632354 28 0
3.5102923 -6.3076191 -0.56127721 28 0
3.5047748 -6.3513131 -0.56118387 28 0
3.4961495 -6.3854899 -0.56009775 28 0
3.4816768 -6.4005752 -0.55710614 28 0
3.4615309 -6.3965111 -0.55224872 28 0
3.4746578 -6.5071507 -0.55843771 28 0
3.5172663 -6.7232466 -0.5745225 28 0
3.5097742 -6.7671881 -0.57400346 28 0
3.4939854 -6.7823668 -0.57073224 28 0
3.4807727 -6.8071036 -0.5683406 28 0
3.470048 -6.8414259 -0.5668087 28 0
3.4539421 -6.8565035 -0.56347728 28 0
3.4403243 -6.8811641 -0.56100577 28 0
3.4240377 -6.8961639 -0.55764121 28 0
3.4076743 -6.9111195 -0.55426317 28 0
3.3912349 -6.9260311 -0.55087197 28 0
3.1031735 -5.8687372 -0.45347941 28 0
3.0850258 -5.8633356 -0.44911554 28 0
3.0669239 -5.8578682 -0.444765 28 0
3.0488672 -5.8523345 -0.44042778 28 0
3.033185 -5.8564253 -0.43692422 28 0
3.0151908 -5.8507686 -0.4326072 28 0
2.9995122 -5.8547506 -0.42911071 28 0
2.9838207 -5.8586826 -0.42561445 28 0
2.9659069 -5.8528438 -0.42132455 28 0
2.9471698 -5.8471513 -0.41685474 28 0
2.9229062 -5.8119731 -0.41025168 28 0
2.8204803 -5.416223 -0.37507689 28 0
2.8061266 -5.4195724 -0.37189296 28 0
2.788439 -5.4031825 -0.36736473 28 0
2.7741244 -5.4064298 -0.3641949 28 0
2.7597992 -5.4096308 -0.36102554 28 0
2.7454634 -5.4127851 -0.35785666 0 0
2.7330589 -5.4256763 -0.35542274 0 0
2.7186732 -5.4287453 -0.3522484 0 0
2.3103387 -3.4255168 -0.19941266 0 0
2.3002479 -3.4173908 -0.19688478 0 0
2.2902122 -3.4092257 -0.19437057 0 0
2.281992 -3.4108417 -0.19256465 0 0
2.2685723 -3.3829565 -0.18869457 0 0
2.2570295 -3.3648415 -0.18554613 0 0
2.2489443 -3.3663502 -0.18377453 0 0
2.239213 -3.357991 -0.18133497 0 0
2.23437 -3.3791366 -0.1808946 0 0
2.2230785 -3.3608677 -0.17780742 0 0
2.2150042 -3.3622675 -0.17604442 0 0
2.2054048 -3.3537781 -0.17363985 0 0
2.1973515 -3.3551204 -0.17188454 0 0
2.1878338 -3.3465645 -0.16950086 0 0
2.1798022 -3.3478508 -0.16775329 0 0
2.1717663 -3.3491108 -0.16600637 0 0
2.1650958 -3.3602321 -0.16486925 0 0
2.1556821 -3.3515537 -0.16251434 0 0
2.1489432 -3.3626325 -0.16136543 0 0
2.1408608 -3.3637941 -0.1596145 0 0
2.1315262 -3.3550246 -0.15728132 0 0
2.1246848 -3.366039 -0.15611482 0 0
2.1165912 -3.3671222 -0.15436608 0 0
2.1096518 -3.3780966 -0.15318142 0 0
2.1037748 -3.3989732 -0.15254116 0 0
2.0955796 -3.3999903 -0.15077509 0 0
2.0873809 -3.4009805 -0.14900982 0 0
2.0802152 -3.4118764 -0.14778262 0 0
2.0729854 -3.4227531 -0.1465431 0 0
2.0666664 -3.4435487 -0.14581546 0 0
2.0592778 -3.4543886 -0.14454506 0 0
2.0527396 -3.4751537 -0.14377353 0 0
2.0460768 -3.495904 -0.14297682 0 0
2.0401425 -3.5265901 -0.14265303 0 0
2.5216625 -10.182005 -0.45640266 28 0
2.4985271 -10.264163 -0.45399719 28 0
2.4741967 -10.336304 -0.45102629 28 0
2.4500985 -10.418351 -0.44842666 28 0
2.427418 -10.530251 -0.44708315 28 0
2.4034505 -10.632131 -0.44515514 28 0
2.3800189 -10.753903 -0.44397977 28 0
2.3570261 -10.865541 -0.44258624 28 0
2.3311293 -10.967257 -0.44026566 28 0
2.2272716 -10.072591 -0.38975608 28 0
2.1970339 -10.074186 -0.38336441 28 0
2.1679883 -10.06562 -0.37691304 28 0
2.1386344 -10.046974 -0.3700847 28 0
2.1097312 -10.038217 -0.36367396 28 0
2.0814879 -10.049343 -0.35804236 28 0
2.0529075 -10.05039 -0.35202762 28 0
2.0263963 -10.071276 -0.3470881 28 0
1.9973238 -10.052164 -0.34034529 28 0
1.9687327 -10.052942 -0.33434388 28 0
1.9401377 -10.053627 -0.32834706 28 0
1.9036584 -12.603212 -0.40170431 0 0
1.8679268 -12.72366 -0.39804301 0 0
1.8241678 -10.065464 -0.30439806 28 0
1.7963215 -13.014193 -0.39229867 0 0
1.7582779 -13.124318 -0.38785702 0 0
1.7193024 -13.274303 -0.38449883 0 0
1.7112939 -10.055815 -0.2805452 0 0
1.6826817 -10.055676 -0.27459246 0 0
1.6536015 -10.085428 -0.26950055 0 0
1.6262029 -10.015144 -0.26158726 0 0
1.5987988 -9.9647627 -0.2543132 0 0
1.5676405 -10.014197 -0.24944158 0 0
1.4130814 -14.510315 -0.36028942 0 0
1.5100427 -10.03289 -0.23815237 0 0
1.4814947 -10.032106 -0.23225024 0 0
1.4529481 -10.03123 -0.22635366 0 0
1.2145966 -15.234608 -0.3424376 0 0
1.1605624 -15.452695 -0.33827361 0 0
1.3682483 -10.008082 -0.20825523 0 0
1.6291025 -4.1653585 -0.076508842 0 0
1.6258957 -4.0250897 -0.071412928 0 0
1.6124308 -4.0844789 -0.070547372 0 0
1.5936587 -4.0534129 -0.06574598 0 0
1.5821456 -4.0727592 -0.064019985 0 0
1.5725466 -4.062139 -0.061738681 0 0
1.5637193 -4.0415168 -0.059300855 0 0
1.553537 -4.0408125 -0.057220284 0 0
1.5433569 -4.0400753 -0.055142008 0 0
1.5339791 -4.0293388 -0.052913442 0 0
1.5238335 -4.0285397 -0.050846007 0 0
1.5131265 -4.0276604 -0.048666213 0 0
1.5029855 -4.026794 -0.046603579 0 0
1.4937711 -4.0159388 -0.044415988 0 0
1.48271 -4.0249639 -0.04248533 0 0
1.4735619 -4.0140491 -0.040314939 0 0
1.463461 -4.0130558 -0.038268004 0 0
1.4533631 -4.0120306 -0.036223527 0 0
1.4421908 -4.0209141 -0.034277864 0 0
1.432068 -4.0198207 -0.03223215 0 0
1.4219484 -4.0186949 -0.030188989 0 0
1.4118319 -4.0175366 -0.028148303 0 0
1.4017186 -4.0163465 -0.026110191 0 0
1.3903788 -4.0250473 -0.024140226 0 0
1.380242 -4.023788 -0.02210116 0 0
1.3701085 -4.0224967 -0.020064671 0 0
1.3560159 -4.05091 -0.018172568 0 0
1.3349873 -4.1288066 -0.01645226 0 0
1.3245307 -4.1273723 -0.01435671 0 0
1.3126659 -4.1358042 -0.012292887 0 0
1.3036296 -4.124403 -0.010173935 0 0
1.2990776 -4.0833044 -0.008019546 0 0
1.291766 -4.0619817 -0.0059379842 0 0
1.2830465 -4.0505266 -0.0038881034 0 0
1.2775204 -4.0192943 -0.0018559363 0 0
1.2673981 -4.0176744 0.00015927204 0 0
1.2556555 -4.0258894 0.0021850937 0 0
1.245512 -4.0242 0.0042006965 0 0
1.2320029 -4.042192 0.0062642903 0 0
1.2195252 -4.0501795 0.0084300656 0 0
1.2040637 -4.0779133 0.0105681 0 0
1.1919817 -4.0858998 0.012651464 0 0
1.1762285 -4.1135135 0.014843253 0 0
0.2488088 -8.6193295 0.056614731 0 0
0.20107064 -8.7321663 0.062337589 0 0
0.17448272 -8.7369766 0.067259431 0 0
0.14986664 -8.7319021 0.07209453 0 0
0.15597522 -8.5799341 0.075468972 0 0
0.11481591 -8.5301971 0.084750548 0 0
0.028798213 -8.808197 0.092773251 0 0
-0.022070544 -8.9197922 0.099076509 0 0
-0.049451888 -8.9238482 0.10412001 0 0
-0.079494692 -8.8245296 0.11269692 0 0
-0.072341144 -8.6823778 0.11552566 0 0
-0.066183813 -8.4369965 0.12154913 0 0
-0.098203965 -8.2640905 0.13255224 0 0
-0.21028769 -8.6069279 0.14348532 0 0
-0.12703907 -8.1843481 0.14021833 0 0
-0.20614882 -8.2978334 0.15161902 0 0
-0.23201856 -8.3011951 0.15630755 0 0
-0.39244646 -8.7029152 0.17444807 0 0
-0.32777789 -8.2848644 0.17441833 0 0
-0.48786208 -8.758954 0.19040249 0 0
-0.46000403 -8.5692377 0.19064538 0 0
-0.46301675 -8.4015293 0.19590576 0 0
-0.53616613 -8.4733725 0.20723946 0 0
-0.628371 -8.6855421 0.21811843 0 0
-0.75761199 -8.9278669 0.23487481 0 0
-0.779836 -8.9102888 0.23938423 0 0
-0.80804276 -8.9116983 0.24444681 0 0
-0.77182078 -8.6290531 0.24563453 0 0
-0.83045822 -8.7254124 0.25357112 0 0
-0.94322962 -8.8982973 0.26915041 0 0
-1.3236758 -9.8454504 0.31182671 0 0
-1.3288687 -9.7694941 0.31478596 0 0
-1.3698733 -9.7973824 0.32135907 0 0
-1.3944588 -9.7779741 0.32625473 0 0
-1.4189565 -9.7584953 0.33112809 0 0
-1.5017993 -9.8132725 0.34439024 0 0
-1.5228823 -9.7841024 0.34888738 0 0
-1.5836428 -9.771843 0.35994199 0 0
-1.3715677 -9.1254301 0.33928308 0 0
-1.3974173 -9.1154337 0.34409067 0 0
-1.4638568 -9.0570335 0.35724315 0 0
-1.533233 -9.0073738 0.3706173 0 0
-1.5962971 -9.0894375 0.37954524 0 0
-1.4176131 -8.5794506 0.36119276 0 0
-1.4951882 -8.6985741 0.3717044 0 0
-1.4788095 -8.5861654 0.3716442 0 0
-1.5466814 -8.6113825 0.38276508 0 0
-1.5866761 -8.6375608 0.38902891 0 0
-1.4606524 -8.2783327 0.37603515 0 0
-1.4799213 -8.2588825 0.37982082 0 0
-1.4870611 -8.2119427 0.38217676 0 0
-1.5222391 -8.2289705 0.38780373 0 0
-1.7000093 -8.5651045 0.41024342 0 0
-1.8307029 -8.790885 0.42724156 0 0
-1.7391307 -8.3928566 0.42097348 0 0
-1.7778437 -8.3523464 0.42848825 0 0
-1.9848309 -8.7292967 0.45489717 0 0
-1.8591505 -8.4018002 0.44112277 0 0
-1.8568563 -8.3362322 0.44222733 0 0
-1.7198164 -7.9361238 0.42815727 0 0
-1.7244045 -7.8891635 0.42998034 0 0
-1.719871 -7.8243489 0.4306621 0 0
-1.7238954 -7.7774992 0.43237415 0 0
-1.7321556 -7.7396102 0.43459129 0 0
-1.8001407 -7.8168669 0.44426671 0 0
-2.1364341 -8.3620586 0.48853597 0 0
-1.8747798 -7.8002582 0.45706606 0 0
-1.873444 -7.7444153 0.45803714 0 0
-1.9136885 -7.7681341 0.46421096 0 0
-2.0606453 -7.9382396 0.484961 0 0
-1.9562011 -7.6881275 0.47292063 0 0
-2.0062439 -7.7288842 0.48032978 0 0
-2.1105032 -7.865027 0.49469829 0 0
-2.1951637 -7.966291 0.50654924 0 0
-2.255002 -8.0241747 0.51519835 0 0
-2.2677526 -7.9939356 0.51789784 0 0
-0.48262918 -4.7147603 0.29133111 0 0
-0.47999349 -4.6815996 0.2915515 0 0
-0.45214722 -4.6053305 0.2885049 0 0
-0.43895012 -4.5551267 0.28733069 0 0
-0.46593791 -4.5738511 0.29134938 0 0
-0.47780693 -4.5666876 0.29340813 0 0
-0.49031207 -4.5590854 0.29557401 0 0
-0.48671708 -4.5261884 0.29560983 0 0
-0.49327436 -4.5104232 0.29696015 0 0
-0.51014185 -4.5116916 0.29965222 0 0
-0.52704018 -4.5128899 0.30234668 0 0
-0.54921329 -4.5225048 0.30573118 0 0
-0.56092685 -4.5150766 0.30774221 0 0
-0.56732076 -4.4991579 0.30904964 0 0
-0.58428645 -4.5001087 0.3117438 0 0
-0.61732882 -4.526247 0.31655702 0 0
-0.63980561 -4.5354075 0.31997854 0 0
-0.64075869 -4.5109205 0.32055259 0 0
-0.65243912 -4.503202 0.32253993 0 0
-0.65864289 -4.4870949 0.32379687 0 0
-0.68120724 -4.4959874 0.3272211 0 0
-3.1311789 -8.1724653 0.65348327 0 0
-3.3128648 -8.2898445 0.68021226 0 0
-3.3763855 -8.2821093 0.69031292 0 0
-3.4279914 -8.3067856 0.69801378 0 0
-3.3092825 -8.0854435 0.68287361 0 0
-3.4176278 -8.1918945 0.69816804 0 0
-3.498009 -8.2569504 0.70972085 0 0
-3.5615642 -8.2971563 0.7190181 0 0
-3.5675738 -8.2558365 0.72056806 0 0
-3.3874705 -7.9553046 0.69701385 0 0
-3.4518707 -7.9945555 0.70643187 0 0
-3.4743025 -7.977941 0.71014506 0 0
-3.4790263 -7.937119 0.711456 0 0
-3.4599087 -7.864233 0.70952815 0 0
-3.5098836 -7.8388715 0.71757859 0 0
-3.6216106 -7.9416237 0.73336387 0 0
-3.5816312 -7.7961974 0.72916472 0 0
-3.7789919 -7.869072 0.75837797 0 0
-3.835407 -7.8493319 0.7671997 0 0
-3.8263807 -7.7925177 0.76651245 0 0
-3.8731141 -7.8058228 0.77343637 0 0
-4.0450253 -7.9740553 0.79748654 0 0
-4.0611334 -7.9478235 0.80022162 0 0
-4.0708346 -7.9138422 0.80206966 0 0
-4.1258898 -7.9327164 0.81015384 0 0
-4.237031 -8.0214415 0.82590175 0 0
-4.2468176 -7.9870262 0.82774234 0 0
-4.7088933 -8.4437523 0.89220876 0 0
-4.7585053 -8.4535398 0.8995291 0 0
-4.7629743 -8.4100618 0.90063345 0 0
-4.7218113 -8.3137426 0.89544433 0 0
-4.8614545 -8.3764229 0.91562504 0 0
-4.8719659 -8.3403606 0.9175216 0 0
-4.7638059 -8.1698189 0.90303832 0 0
-4.7075162 -8.0596418 0.89568776 0 0
-4.683764 -7.987042 0.89281082 0 0
-4.7007904 -7.9579754 0.89557356 0 0
-4.7164593 -7.9300199 0.89811766 0 0
-4.7253213 -7.8946681 0.89971161 0 0
-4.7474737 -7.8740206 0.90313351 0 0
-4.7425833 -7.8240104 0.90280569 0 0
-4.6832995 -7.7156897 0.89493847 0 0
-4.7592282 -7.7534165 0.90577507 0 0
-4.9444709 -7.906868 0.93174833 0 0
-5.1717386 -8.1026392 0.96355087 0 0
-4.8242021 -7.6909437 0.91570109 0 0
-4.8182096 -7.6412086 0.91515958 0 0
-4.8395877 -7.6202655 0.91840309 0 0
-4.867826 -7.6064072 0.9225899 0 0
-4.8960447 -7.5924354 0.92676622 0 0
-5.3284397 -7.9905157 0.98703182 0 0
-4.8964939 -7.5074873 0.92732239 0 0
-4.9314866 -7.5004225 0.93241382 0 0
-4.9946432 -7.5213609 0.94140983 0 0
-4.9391894 -7.421484 0.9339332 0 0
-5.0590034 -7.4980769 0.95078677 0 0
-5.0870485 -7.4833446 0.95488286 0 0
-5.0509667 -7.4059601 0.95005614 0 0
-5.0644836 -7.3773546 0.9521144 0 0
-5.0778899 -7.348731 0.95414853 0 0
-5.2205467 -7.4439516 0.97415173 0 0
-5.1836648 -7.366868 0.96917564 0 0
-5.1391449 -7.2832494 0.963126 0 0
-5.9569592 -8.0107136 1.0770628 0 0
-5.346889 -7.395442 0.99229813 0 0
-5.4685335 -7.4243331 1.0094624 0 0
-5.3939161 -7.3139639 0.99917752 0 0
-5.4301438 -7.303328 1.0043198 0 0
-5.4062352 -7.2404146 1.0010748 0 0
-5.3968058 -7.1910148 0.99983674 0 0
-5.5354986 -7.2742643 1.0192176 0 0
-5.5408893 -7.2378492 1.0200268 0 0
-5.5461235 -7.2014651 1.0208054 0 0
-6.5534225 -8.0435648 1.1611468 0 0
-6.5760713 -8.0171366 1.164338 0 0
-6.6136775 -8.0036507 1.1696028 0 0
-6.643744 -7.9835167 1.1738079 0 0
-8.3977251 -9.2176123 1.4180533 0 0
-8.5361376 -9.2206659 1.4372177 0 0
-8.6503925 -9.2053127 1.4529715 0 0
-8.8144035 -9.1740026 1.4754833 0 0
-8.9682255 -9.1866264 1.4966205 0 0
-9.1345749 -9.149025 1.5192558 0 0
-9.2238007 -9.1627789 1.5314771 0 0
-9.2815809 -9.1519766 1.5393095 0 0
-9.4631348 -9.1238232 1.5638678 0 0
-9.7514744 -9.1151781 1.6028476 0 0
-10.350516 -9.0890274 1.683164 0 0
-10.40105 -9.0674238 1.6897577 0 0
-10.451571 -9.0455885 1.6963352 0 0
-10.469137 -9.0012827 1.6983297 0 0
-10.610332 -9.0399189 1.7174445 0 0
-11.166415 -9.001853 1.7908081 0 0
-13.420135 -8.8260231 2.0818622 0 0
-13.471646 -8.791832 2.0879323 0 0
-13.56706 -8.7804461 2.0999899 0 0
-20.992096 -12.400991 3.1112323 0 0
-21.001856 -12.315457 3.1110089 0 0
-21.158648 -11.582448 3.1174295 0 0
-7.3503551 -4.9800496 1.2396683 0 0
-7.3005257 -4.9220219 1.2322009 0 0
-7.3413978 -4.904057 1.2369918 0 0
-22.645073 -11.719767 3.307909 0 0
-15.827332 -8.5857334 2.3832607 0 0
-15.942579 -8.5701876 2.3974195 0 0
-16.057901 -8.553997 2.411557 0 0
-16.173302 -8.5371561 2.4256725 0 0
-16.316118 -8.5314465 2.4434574 0 0
-73.721825 -32.715183 10.180905 0 0
-73.902138 -32.230106 10.19223 0 0
-72.775093 -31.210781 10.027444 0 0
-74.529343 -31.073078 10.242607 0 0
-74.605522 -30.824732 10.245917 0 0
-74.828819 -30.633921 10.268877 0 0
-73.442101 -29.004284 10.055011 0 0
-74.683365 -28.647976 10.199015 0 0
-74.53727 -28.322126 10.17213 0 0
-74.726227 -28.117857 10.189843 0 0
-74.821129 -27.879545 10.194949 0 0
-76.50695 -28.199383 10.411554 0 0
-75.559898 -27.04771 10.262293 0 0
-75.717407 -26.828796 10.275295 0 0
-76.473511 -26.534851 10.359427 0 0
-79.237274 -26.301737 10.690763 0 0
-4.9515986 -2.8296578 0.88782334 0 0
-4.8349533 -2.7702994 0.87173057 0 0
-4.8413658 -2.7493587 0.87185645 0 0
-4.8952065 -2.7427313 0.87821394 0 0
-4.8825207 -2.7159276 0.87581259 0 0
-4.8792505 -2.6920297 0.87464565 0 0
-4.8758979 -2.6681747 0.87346399 0 0
-4.8915315 -2.6498528 0.87476689 0 0
-4.8880315 -2.62602 0.87355578 0 0
-4.9035521 -2.6076007 0.87482959 0 0
-4.9190245 -2.5891049 0.87608892 0 0
-4.9440165 -2.5731549 0.87858331 0 0
-4.9594002 -2.5544722 0.87981343 0 0
-4.9939032 -2.5408413 0.88352817 0 0
-5.0092049 -2.5219419 0.88472849 0 0
-5.0532565 -2.510479 0.88966256 0 0
-53.830132 -11.710137 7.1059108 0 0
-48.959076 -10.249969 6.4633145 0 0
-48.579399 -10.014338 6.4081993 0 0
-48.794334 -9.889101 6.428731 0 0
-48.618225 -9.6930904 6.3995152 0 0
-48.430107 -9.3331795 6.361908 0 0
-48.741219 -9.2225533 6.3943672 0 0
-52.596413 -9.6947012 6.8747673 0 0
-49.408783 -8.8375397 6.4574785 0 0
-49.356152 -8.6639385 6.4436436 0 0
-54.208321 -9.2365026 7.0471287 0 0
-52.449028 -8.7941465 6.8179855 0 0
-52.61224 -8.6431875 6.8307309 0 0
-45.455647 -7.4492755 5.92522 0 0
-45.596489 -7.1647253 5.9291658 0 0
-45.705631 -7.0271196 5.935895 0 0
-48.885101 -7.2865977 6.3258991 0 0
-46.779362 -6.702744 6.0486317 0 0
-53.627369 -7.3685637 6.8933578 0 0
-45.151337 -6.2021003 5.8318291 0 0
-44.725204 -6.003799 5.7718792 0 0
-44.742222 -5.8572145 5.7669544 0 0
-11.748342 -2.1736121 1.6750261 0 0
-11.674055 -2.1227224 1.6637712 0 0
-11.678587 -2.0802755 1.6622624 0 0
-11.663232 -2.0358906 1.658289 0 0
-11.657614 -1.992548 1.6555091 0 0
-11.661744 -1.9501604 1.6539202 0 0
-11.705295 -1.9112411 1.6571631 0 0
-11.719066 -1.8695465 1.6567274 0 0
-11.821751 -1.8350507 1.6671742 0 0
-18.376795 -2.1788929 2.4609079 0 0
-18.629456 -2.1288753 2.4882736 0 0
-17.55863 -1.9326611 2.3514302 0 0
-17.592402 -1.8734704 2.3523598 0 0
-17.616085 -1.8135296 2.3520393 0 0
-25.069796 -2.0628729 3.2469611 0 0
-25.114027 -1.980139 3.2478139 0 0
-25.038986 -1.8919493 3.2342465 0 0
-18.555164 -1.5451041 2.4489102 0 0
-18.498499 -1.478808 2.4386454 0 0
-33.038315 -1.9111202 4.1811929 0 0
-31.514214 -1.7541091 3.9924698 0 0
-18.17835 -1.277998 2.3898873 0 0
-18.160532 -1.2146285 2.3843038 0 0
-23.971914 -1.1957558 3.0701878 0 0
-23.983719 -1.1148078 3.0670743 0 0
-27.53013 -1.076517 3.4840882 0 0
-25.694662 -0.96780378 3.2610407 0 0
-31.465391 -0.9147138 3.9400594 0 0
-31.47645 -0.81007785 3.9354217 0 0
-23.959555 -0.70912606 3.0412834 0 0
-23.900345 -0.62830311 3.029649 0 0
-25.310688 -0.53786868 3.191117 0 0
-25.300627 -0.45268303 3.1849937 0 0
-38.815239 -0.062836193 4.7595544 0 0
-33.381958 -0.040319454 4.1160302 0 0
-31.444096 0.02672557 3.8830106 0 0
-24.461969 -0.047883503 3.0620835 0 0
-24.400742 0.032992214 3.0500259 0 0
0.20311022 -0.66089982 0.1827863 0 0
0.17349689 -0.65464616 0.18590859 0 0
0.25307161 -0.65307045 0.17640157 0 0
0.21356705 -0.64631373 0.1806602 0 0
0.22369631 -0.64183158 0.17918618 0 0
0.2139975 -0.63634074 0.17999421 0 0
0.22415465 -0.63192278 0.17851809 0 0
0.22440672 -0.62696952 0.17817935 0 0
0.22467415 -0.62201774 0.17783751 0 0
-31.915421 1.5242952 3.8472159 0 0
-32.483936 1.6703846 3.9052887 0 0
-32.447388 1.7759819 3.8942578 0 0
-0.2294212 -0.56115955 0.22774175 0 0
-0.080407165 -0.56702644 0.21046515 0 0
0.048753731 -0.57213366 0.19549018 0 0
0.1580718 -0.57629502 0.18280397 0 0
0.24755901 -0.57932264 0.17239314 0 0
0.31722751 -0.58103061 0.16424443 0 0
0.38687265 -0.58317494 0.15612578 0 0
0.39716533 -0.57973921 0.1546782 0 0
0.4272359 -0.57843441 0.15102391 0 0
0.48694733 -0.58051282 0.14407571 0 0
0.46760467 -0.57419723 0.14594994 0 0
0.23265029 -0.52818817 0.17075373 0 0
0.22336058 -0.52201545 0.17143713 0 0
0.24366741 -0.51962936 0.16885918 0 0
0.24426596 -0.51474273 0.1684521 0 0
0.24487947 -0.50985873 0.16804205 0 0
0.24550824 -0.50497645 0.16762894 0 0
0.24615197 -0.50009686 0.16721284 0 0
0.24681066 -0.49521911 0.16679375 0 0
0.21798308 -0.48594138 0.16957758 0 0
0.22851446 -0.48247412 0.16807845 0 0
0.24887726 -0.48060068 0.16551848 0 0
-17.673334 2.7481952 2.0735025 0 0
-17.604235 2.7986443 2.0615637 0 0
-17.49589 2.841469 2.0454698 0 0
-17.504768 2.9056818 2.0418184 0 0
-17.464592 2.9606433 2.0329578 0 0
-17.492607 3.028676 2.0312822 0 0
-18.06686 3.2049286 2.0870173 0 0
-18.035572 3.2633317 2.0789144 0 0
-17.838419 3.2877362 2.053441 0 0
-17.767931 3.3372107 2.0412683 0 0
-17.823879 3.4129384 2.0422814 0 0
-18.064392 3.5286105 2.062427 0 0
-11.547932 2.2241297 1.378249 0 0
-11.471596 2.248446 1.3672074 0 0
-11.423841 2.2812459 1.3589443 0 0
-11.405102 2.3204706 1.3536686 0 0
-11.386246 2.3596063 1.3483742 0 0
-11.406007 2.4078267 1.3470188 0 0
-11.415923 2.4538767 1.3446332 0 0
-11.445023 2.5047233 1.3441763 0 0
2.8097751 4.1639338 -0.94972664 28 0
2.820065 4.1411815 -0.94876504 28 0
2.8310657 4.118206 -0.94793862 28 0
2.8398592 4.0856128 -0.9452014 28 0
2.8526785 4.0721998 -0.94620174 28 0
2.8611515 4.039587 -0.94339663 28 0
2.8694346 4.0069747 -0.94055194 28 0
2.8819196 3.9934983 -0.94147897 28 0
2.8898847 3.9608705 -0.93856716 28 0
2.8976579 3.9282455 -0.93561554 28 0
2.9075263 3.9051664 -0.93454725 28 0
2.9149494 3.872539 -0.93152261 28 0
2.9292185 3.8684964 -0.93426162 28 0
2.9410992 3.8548911 -0.93505538 28 0
2.9456983 3.812727 -0.92999601 28 0
2.9549148 3.7895899 -0.9287886 28 0
2.9640033 3.7664418 -0.92755389 28 0
2.9729593 3.7432852 -0.92629111 28 0
2.9868279 3.7390697 -0.92893672 28 0
2.9963489 3.7156408 -0.9277758 28 0
3.0049689 3.6924405 -0.92644054 28 0
3.0134587 3.6692331 -0.92507762 28 0
3.0218205 3.6460183 -0.92368764 28 0
3.0327196 3.6322265 -0.92426604 28 0
3.0408478 3.6089921 -0.92282629 28 0
3.0481038 3.5859985 -0.92121869 28 0
3.0559759 3.5627565 -0.91972518 28 0
3.066503 3.5489006 -0.92022234 28 0
3.0797732 3.5444024 -0.92272699 28 0
3.0823858 3.5021307 -0.91724753 28 0
3.0926397 3.4882257 -0.91768503 28 0
3.0970125 3.4556015 -0.91402501 28 0
3.1070623 3.4416754 -0.91441876 28 0
3.1170404 3.4277279 -0.91479623 28 0
3.1269491 3.4137599 -0.91515815 28 0
3.133764 3.390465 -0.9134413 28 0
3.1434977 3.3764682 -0.91376501 28 0
3.1507869 3.3529031 -0.91213137 28 0
3.1634533 3.3481522 -0.91449565 28 0
3.1698325 3.3248332 -0.91268659 28 0
3.1792495 3.31077 -0.9129405 28 0
3.1885924 3.2966895 -0.91317809 28 0
3.1946402 3.2733614 -0.91129953 28 0
3.2038107 3.2592573 -0.91149968 28 0
3.2129109 3.2451358 -0.91168427 28 0
3.2219372 3.2309983 -0.91185254 28 0
3.2275538 3.2076602 -0.90988356 28 0
3.2364075 3.1935029 -0.91001469 28 0
3.2451911 3.1793287 -0.91013026 28 0
3.2539008 3.1651404 -0.91022968 28 0
3.2625382 3.1509373 -0.91031307 28 0
3.2711036 3.1367199 -0.91038078 28 0
3.2760911 3.113374 -0.90828013 28 0
3.2844839 3.0991404 -0.90831089 28 0
3.2928047 3.0848937 -0.90832591 28 0
3.2974606 3.0615571 -0.90615678 28 0
3.3056111 3.0472958 -0.90613544 28 0
3.3106844 3.0236821 -0.90403736 28 0
3.3149807 3.0003695 -0.90179479 28 0
3.3265622 2.9951229 -0.90390438 28 0
3.3306563 2.9718137 -0.90161985 28 0
3.3383863 2.9575193 -0.90150893 28 0
3.3536296 2.9611871 -0.90579182 28 0
3.3498125 2.9199243 -0.89903122 28 0
3.3572986 2.9056122 -0.89886844 28 0
3.3685882 2.9002378 -0.9009099 28 0
3.3798633 2.8948267 -0.90294611 28 0
3.3793273 2.8626192 -0.89828765 28 0
3.3865259 2.8482711 -0.89806294 28 0
3.3896658 2.825021 -0.89558297 28 0
3.3966949 2.8106692 -0.8953228 28 0
3.4036503 2.7963109 -0.89504689 28 0
3.4146035 2.7907975 -0.89701015 28 0
3.4214427 2.7764108 -0.89670843 28 0
3.4240878 2.7531931 -0.89412725 28 0
3.4349082 2.7476175 -0.89605933 28 0
3.4373529 2.7244167 -0.89343745 28 0
3.4480848 2.718801 -0.89534873 28 0
3.4545672 2.7043836 -0.89497083 28 0
3.4567146 2.6812096 -0.89228863 28 0
3.4630249 2.6667979 -0.89187521 28 0
3.4735796 2.6611047 -0.89374506 28 0
3.4710872 2.6292534 -0.88869953 28 0
3.4864779 2.6319113 -0.89295471 28 0
3.4925282 2.6174669 -0.8924852 28 0
3.4940796 2.594358 -0.88968253 28 0
3.4999583 2.5799236 -0.88917798 28 0
3.5057657 2.5654869 -0.88865829 28 0
3.5205169 2.5682809 -0.89278817 28 0
3.5262353 2.5538096 -0.89224797 28 0
3.5273218 2.5307505 -0.88935131 28 0
3.5374579 2.5248623 -0.89112276 28 0
3.5383501 2.5018308 -0.88818723 28 0
3.5483973 2.4959095 -0.88993818 28 0
3.5537591 2.4814327 -0.88932341 28 0
3.5590498 2.4669557 -0.88869381 28 0
3.5689914 2.4609697 -0.89041907 28 0
3.5694199 2.4380019 -0.88739055 28 0
3.5744977 2.4235268 -0.88671666 28 0
3.5752466 2.400275 -0.88373864 28 0
3.584981 2.3942437 -0.88541806 28 0
3.5898433 2.3797719 -0.88469946 28 0
3.5946364 2.3653011 -0.88396662 28 0
3.5944514 2.3424575 -0.88081753 28 0
3.6040075 2.3363693 -0.88245654 28 0
3.6135454 2.3302507 -0.88409001 28 0
3.6230662 2.324101 -0.88571811 28 0
3.6225462 2.3013031 -0.88250184 28 0
3.62694 2.2868354 -0.88168597 28 0
3.6312635 2.272372 -0.88085562 28 0
3.6456935 2.2744284 -0.88487595 28 0
3.6550412 2.2681806 -0.88646233 28 0
3.6540916 2.2454557 -0.88316083 28 0
3.6633499 2.2391834 -0.88472718 28 0
3.6674004 2.2246919 -0.88383836 28 0
3.676595 2.2183783 -0.88538903 28 0
3.6752877 2.1957285 -0.88201731 28 0
3.6848986 2.1890388 -0.88363302 28 0
3.6833963 2.1664376 -0.88022351 28 0
3.6982327 2.1678212 -0.88428962 28 0
3.6965611 2.1452522 -0.88084674 28 0
3.7157547 2.1553338 -0.88721842 28 0
3.7139473 2.1327796 -0.88374805 28 0
3.7174397 2.1182969 -0.88274342 28 0
3.7208636 2.103821 -0.88172495 28 0
3.7242165 2.089355 -0.8806923 28 0
3.7329948 2.0828698 -0.88214636 28 0
3.7367189 2.0680413 -0.88117009 28 0
3.7509778 2.0694513 -0.88511741 28 0
3.7541246 2.054966 -0.88404071 28 0
3.7627995 2.0483856 -0.88546765 28 0
3.7602119 2.0260236 -0.88184589 28 0
3.768796 2.0194275 -0.88325304 28 0
3.7773597 2.0128043 -0.8846544 28 0
3.780211 1.9983318 -0.88351685 28 0
3.7772734 1.9760704 -0.87982792 28 0
3.7857034 1.9694235 -0.88120008 28 0
3.7998803 1.9705126 -0.88511175 28 0
3.8025043 1.956048 -0.88392729 28 0
3.8108735 1.9493209 -0.88528216 28 0
3.8133826 1.9348629 -0.88407415 28 0
3.8158231 1.9204174 -0.88285261 28 0
3.8181963 1.9059839 -0.88161772 28 0
3.8264112 1.8992103 -0.88293773 28 0
3.8346057 1.8924109 -0.88425195 28 0
3.8368199 1.8779795 -0.88298404 28 0
3.8389673 1.8635614 -0.88170296 28 0
3.8470519 1.8567241 -0.88299215 28 0
3.8490851 1.8423158 -0.88168788 28 0
3.8631585 1.842973 -0.88555306 28 0
3.8590267 1.821048 -0.88163483 28 0
3.8674209 1.8137662 -0.88296282 28 0
3.8692284 1.7993768 -0.8816126 28 0
3.8709662 1.7850044 -0.88024884 28 0
3.8788092 1.7780704 -0.88148212 28 0
3.892827 1.7785128 -0.88532329 28 0
3.8882143 1.7567461 -0.88131398 28 0
3.8959706 1.7497584 -0.88252604 28 0
3.8974407 1.7354074 -0.88110781 28 0
3.9051316 1.7283914 -0.88230461 28 0
3.906491 1.7140533 -0.88086408 28 0
3.9141164 1.7070101 -0.88204569 28 0
3.9153633 1.6926881 -0.88058263 28 0
3.9229228 1.685618 -0.88174891 28 0
3.9304619 1.6785227 -0.88290954 28 0
3.937978 1.6714048 -0.88406408 28 0
3.9390256 1.6570938 -0.88256001 28 0
3.946476 1.6499499 -0.88369942 28 0
3.9474139 1.6356548 -0.88217354 28 0
3.9547985 1.6284857 -0.88329762 28 0
3.9556243 1.6142101 -0.88174951 28 0
3.9695015 1.614077 -0.88552815 28 0
3.9570782 1.5857207 -0.87861562 28 0
3.9709125 1.5855399 -0.88238251 28 0
3.9715183 1.5713037 -0.88079083 28 0
3.9720578 1.5570884 -0.87918651 28 0
3.9725318 1.542895 -0.87756979 28 0
3.9863222 1.5425794 -0.88131982 28 0
3.9934204 1.5352916 -0.88237745 28 0
3.9874191 1.5138086 -0.87809533 28 0
3.9944286 1.5065197 -0.87913442 28 0
4.0014157 1.4992087 -0.88016754 28 0
4.0151815 1.4986895 -0.88390064 28 0
4.0085034 1.4777265 -0.87950748 28 0
4.0154023 1.4703722 -0.88051975 28 0
4.0222783 1.4629959 -0.88152599 28 0
4.0291333 1.4555968 -0.88252652 28 0
4.0290589 1.441476 -0.88079983 28 0
4.0289197 1.4273793 -0.87906098 28 0
4.0287161 1.4133077 -0.87731016 28 0
4.0354166 1.4058927 -0.87827754 28 0
4.0490847 1.4050646 -0.88197249 28 0
4.0487504 1.3909986 -0.88019478 28 0
4.0553827 1.3835206 -0.88114434 28 0
4.0619926 1.3760219 -0.88208807 28 0
4.0615082 1.3619852 -0.88028079 28 0
4.0680513 1.3544681 -0.88120961 28 0
4.0816846 1.353399 -0.88488322 28 0
4.073936 1.3329271 -0.88029546 28 0
4.0803909 1.3253707 -0.88120359 28 0
4.0868216 1.3177954 -0.88210559 28 0
4.0863905 1.3034043 -0.8802889 28 0
4.0927534 1.2958111 -0.88117576 28 0
4.0990939 1.2881978 -0.88205665 28 0
4.1054115 1.2805632 -0.88293171 28 0
4.1044307 1.2666337 -0.88102716 28 0
4.1106811 1.2589847 -0.88188732 28 0
4.1095943 1.2450883 -0.87996262 28 0
4.1157784 1.2374243 -0.88080812 28 0
4.1145873 1.2235602 -0.87886351 28 0
4.128077 1.2220367 -0.8824811 28 0
4.1267991 1.208184 -0.88051915 28 0
4.1254592 1.194361 -0.87854588 28 0
4.1240582 1.1805665 -0.87656164 28 0
4.1449413 1.1849746 -0.88295752 28 0
4.1434731 1.1711683 -0.8809585 28 0
4.1494298 1.1633999 -0.88175064 28 0
4.1481853 1.1491982 -0.87977546 28 0
4.1540756 1.141415 -0.88055289 28 0
4.1599412 1.1336147 -0.88132411 28 0
4.1582193 1.1198894 -0.87927699 28 0
4.1640191 1.1120772 -0.88003373 28 0
4.1545939 1.0925329 -0.87515032 28 0
4.1755466 1.0963968 -0.88152921 28 0
4.1812739 1.0885301 -0.88226783 28 0
4.1793213 1.0748647 -0.88017613 28 0
4.1773086 1.0612322 -0.87807375 28 0
4.1829286 1.0533612 -0.87878966 28 0
4.1808128 1.0397693 -0.87666833 28 0
4.1863656 1.0318899 -0.87736982 28 0
4.1918945 1.0239929 -0.87806523 28 0
4.2051635 1.021705 -0.88159263 28 0
4.2028799 1.0081456 -0.8794381 28 0
4.2005363 0.9946205 -0.87727308 28 0
4.2059503 0.98668021 -0.8779422 28 0
4.2113414 0.97872174 -0.87860537 28 0
4.2245584 0.9762463 -0.88211107 28 0
4.2220473 0.96275651 -0.87991321 28 0
4.2194777 0.94930208 -0.8777051 28 0
4.232657 0.94672298 -0.88119704 28 0
4.2379241 0.93868178 -0.88182974 28 0
4.2355194 0.92480868 -0.87963176 28 0
4.2407193 0.91675985 -0.88024992 28 0
4.2538667 0.91400927 -0.88372529 28 0
4.2430558 0.89532536 -0.87860286 28 0
4.2481661 0.88725281 -0.87920094 28 0
4.2612729 0.8844009 -0.882662 28 0
4.2663493 0.87627131 -0.88324976 28 0
4.2714005 0.8681258 -0.88383144 28 0
4.2683558 0.8548075 -0.88153219 28 0
4.2652531 0.84152806 -0.87922323 28 0
4.2701964 0.83338863 -0.87978274 28 0
4.2751155 0.8252337 -0.88033628 28 0
4.288147 0.82211071 -0.88376594 28 0
4.2767272 0.80385447 -0.87854135 28 0
4.2897239 0.80067533 -0.88196045 28 0
4.2945428 0.79245931 -0.88248962 28 0
4.299602 0.78377002 -0.88304162 28 0
4.3043699 0.77552158 -0.88355821 28 0
4.3008795 0.76237428 -0.88117611 28 0
4.2973332 0.74926627 -0.8787846 28 0
4.3017359 0.74148619 -0.87925225 28 0
4.3063726 0.73323536 -0.87974143 28 0
4.3109841 0.7249698 -0.88022447 28 0
4.3238778 0.72144049 -0.8836019 28 0
